# .PCD v0.7 - Point Cloud Data file format
VERSION 0.7
FIELDS x y z rgb
SIZE 4 4 4 4
TYPE F F F U
COUNT 1 1 1 1
WIDTH 1376
HEIGHT 1
VIEWPOINT 0 0 0 1 0 0 0
POINTS 1376
DATA ascii
74.612846 1631.6 728 4294967295
75.8367 1631.8 729 4294967295
77.064217 1632 730 4294967295
78.165138 1632 730 4294967295
79.398163 1632.2 731 4294967295
80.634865 1632.4 732 4294967295
81.875229 1632.6 733 4294967295
82.981651 1632.6 733 4294967295
17.878899 1632.6826 739 4286808195
18.933945 1632.2863 737 4287860884
20.014679 1632.0881 736 4289570488
21.056881 1631.6918 734 4287596442
22.091743 1631.2954 732 4284117642
23.157799 1631.0973 731 4282933111
24.220184 1630.899 730 4281355086
25.278898 1630.7009 729 4281355086
26.333944 1630.5028 728 4282074420
27.431192 1630.5028 728 4282469178
28.480734 1630.3046 727 4283650132
29.526606 1630.1064 726 4286939782
30.568808 1629.9082 725 4287731092
31.713762 1630.1064 726 4287994520
32.752293 1629.9082 725 4288123540
33.787155 1629.7101 724 4285754992
34.818348 1629.512 723 4284572780
35.906422 1629.512 723 4283059541
36.994495 1629.512 723 4282534178
38.082569 1629.512 723 4283521073
39.236698 1629.7101 724 4283782476
40.326607 1629.7101 724 4284111184
41.416515 1629.7101 724 4283979864
42.50642 1629.7101 724 4284769380
43.596329 1629.7101 724 4284704872
44.686237 1629.7101 724 4284704872
45.776146 1629.7101 724 4284573284
46.866055 1629.7101 724 4284441442
47.955963 1629.7101 724 4282930008
48.963303 1629.512 723 4280363825
49.966972 1629.3137 722 4280233511
51.053211 1629.3137 722 4285957502
52.13945 1629.3137 722 4288775312
53.13578 1629.1156 721 4290683309
54.220184 1629.1156 721 4291207325
55.304588 1629.1156 721 4291931047
56.388992 1629.1156 721 4292070856
57.570641 1629.3137 722 4294967295
58.656879 1629.3137 722 4294967295
59.743118 1629.3137 722 4294967295
60.829357 1629.3137 722 4294967295
61.915596 1629.3137 722 4294967295
63.001835 1629.3137 722 4294967295
64.196327 1629.512 723 4294967295
65.394493 1629.7101 724 4294967295
66.484406 1629.7101 724 4294967295
67.57431 1629.7101 724 4294967295
68.779816 1629.9082 725 4294967295
69.871559 1629.9082 725 4294967295
71.082565 1630.1064 726 4294967295
72.297249 1630.3046 727 4294967295
73.515594 1630.5028 728 4294967295
74.612846 1630.5028 728 4294967295
75.8367 1630.7009 729 4294967295
76.935783 1630.7009 729 4294967295
78.034859 1630.7009 729 4294967295
79.266052 1630.899 730 4294967295
80.500916 1631.0973 731 4294967295
81.739449 1631.2954 732 4294967295
82.84404 1631.2954 732 4294967295
16.78899 1631.7615 740 4284377452
17.878899 1631.5652 739 4284705122
18.965137 1631.3688 738 4285099880
20.047707 1631.1725 737 4286019195
21.056881 1630.5835 734 4287400848
22.128441 1630.3872 733 4286019988
23.157799 1629.9945 731 4285098886
24.220184 1629.7982 730 4283916133
25.278898 1629.6018 729 4282534480
26.333944 1629.4055 728 4282140989
27.431192 1629.4055 728 4283720022
28.433027 1629.0128 726 4283981676
29.526606 1629.0128 726 4285100158
30.568808 1628.8165 725 4285560179
31.60734 1628.6202 724 4285823095
32.697247 1628.6202 724 4285560179
33.730274 1628.4238 723 4285231215
34.759632 1628.2275 722 4284113263
35.845871 1628.2275 722 4282928988
36.93211 1628.2275 722 4283257145
38.018349 1628.2275 722 4285757279
39.170643 1628.4238 723 4287203192
40.258717 1628.4238 723 4287466107
41.34679 1628.4238 723 4287006831
42.434864 1628.4238 723 4285098833
43.522934 1628.4238 723 4284640363
44.611008 1628.4238 723 4284508520
45.776146 1628.6202 724 4284508770
46.866055 1628.6202 724 4283719511
47.955963 1628.6202 724 4282206047
48.963303 1628.4238 723 4281284945
50.051376 1628.4238 723 4283581790
51.13945 1628.4238 723 4288384679
52.596329 1626.8533 715 4291729315
54.036697 1627.6385 719 4291797409
55.117432 1627.6385 719 4292587181
56.198166 1627.6385 719 4291346615
57.2789 1627.6385 719 4294966001
58.359634 1627.6385 719 4294967295
59.6422 1628.0312 721 4294967295
60.726604 1628.0312 721 4294967295
61.915596 1628.2275 722 4294967295
62.895412 1628.0312 721 4294967295
64.088074 1628.2275 722 4294967295
65.174309 1628.2275 722 4294967295
66.372475 1628.4238 723 4294967295
67.460548 1628.4238 723 4294967295
68.664223 1628.6202 724 4294967295
69.871559 1628.8165 725 4294967295
71.082565 1629.0128 726 4294967295
72.297249 1629.2092 727 4294967295
73.392662 1629.2092 727 4294967295
74.612846 1629.4055 728 4294967295
75.8367 1629.6018 729 4294967295
76.935783 1629.6018 729 4294967295
78.034859 1629.6018 729 4294967295
79.266052 1629.7982 730 4294967295
80.500916 1629.9945 731 4294967295
81.603668 1629.9945 731 4294967295
82.706421 1629.9945 731 4294967295
18.933945 1630.0587 737 4284770664
20.014679 1629.8643 736 4284901993
21.056881 1629.4752 734 4286415488
22.091743 1629.0862 732 4287662750
23.157799 1628.8917 731 4287070870
24.220184 1628.6973 730 4285099906
25.278898 1628.5028 729 4283126116
26.333944 1628.3082 728 4282140213
27.385321 1628.1138 727 4283258437
28.433027 1627.9193 726 4284968290
29.477064 1627.7247 725 4284968290
30.568808 1627.7247 725 4284377954
31.554129 1627.3358 723 4284246368
32.6422 1627.3358 723 4284968790
33.673393 1627.1412 722 4284902997
34.759632 1627.1412 722 4284114265
35.845871 1627.1412 722 4283390541
36.93211 1627.1412 722 4283520319
38.018349 1627.1412 722 4286612590
39.104588 1627.1412 722 4289436586
40.190826 1627.1412 722 4288252311
41.277065 1627.1412 722 4287139464
42.363304 1627.1412 722 4285231467
43.522934 1627.3358 723 4284574827
44.611008 1627.3358 723 4284706669
45.699081 1627.3358 723 4284902245
46.866055 1627.5303 724 4283323469
47.875229 1627.3358 723 4282596680
48.880733 1627.1412 722 4283385940
49.966972 1627.1412 722 4288177533
50.880733 1626.7523 720 4290216859
51.699081 1626.1688 717 4290739567
52.596329 1625.7798 715 4291594876
53.669724 1625.7798 715 4292125345
55.023853 1626.3633 718 4293046447
56.102753 1626.3633 718 4290622645
57.2789 1626.5579 719 4294372846
58.260551 1626.3633 718 4294967295
59.541283 1626.7523 720 4294967295
60.623852 1626.7523 720 4294967295
61.811008 1626.9468 721 4294967295
62.895412 1626.9468 721 4294967295
63.979816 1626.9468 721 4294967295
65.064217 1626.9468 721 4294967295
66.260551 1627.1412 722 4294967295
67.460548 1627.3358 723 4294967295
68.548622 1627.3358 723 4294967295
69.871559 1627.7247 725 4294967295
71.082565 1627.9193 726 4294967295
72.176147 1627.9193 726 4294967295
73.392662 1628.1138 727 4294967295
74.612846 1628.3082 728 4294967295
75.8367 1628.5028 729 4294967295
76.935783 1628.5028 729 4294967295
78.165138 1628.6973 730 4294967295
79.398163 1628.8917 731 4294967295
80.634865 1629.0862 732 4294967295
81.603668 1628.8917 731 4294967295
82.706421 1628.8917 731 4294967295
18.902752 1628.7523 736 4285165171
20.014679 1628.7523 736 4285099124
21.126606 1628.7523 736 4286283398
22.128441 1628.1743 733 4287202969
23.234863 1628.1743 733 4288584622
24.220184 1627.5963 730 4285888656
25.278898 1627.4037 729 4284046452
26.333944 1627.2111 728 4281878602
27.385321 1627.0183 727 4281615173
28.433027 1626.8257 726 4281878602
29.526606 1626.8257 726 4283457377
30.568808 1626.6331 725 4283588174
31.554129 1626.2477 723 4282798659
32.6422 1626.2477 723 4285559634
33.673393 1626.0551 722 4288191354
34.759632 1626.0551 722 4290427537
35.78532 1625.8624 721 4290690709
36.869724 1625.8624 721 4290492851
37.954128 1625.8624 721 4290492851
39.104588 1626.0551 722 4288651192
40.190826 1626.0551 722 4287006624
41.277065 1626.0551 722 4286548087
42.363304 1626.0551 722 4285232484
43.449543 1626.0551 722 4284311911
44.535778 1626.0551 722 4284574827
45.622017 1626.0551 722 4284114017
46.708256 1626.0551 722 4282074177
47.794495 1626.0551 722 4283845207
48.550457 1625.2844 718 4287793044
49.798164 1625.6697 720 4290216335
50.880733 1625.6697 720 4288571253
51.699081 1625.0918 717 4289548111
52.686237 1624.899 716 4292180088
53.761467 1624.899 716 4291928736
55.023853 1625.2844 718 4293968062
56.102753 1625.2844 718 4291804868
57.2789 1625.4771 719 4293318107
58.260551 1625.2844 718 4294967292
59.440369 1625.4771 719 4294967295
60.623852 1625.6697 720 4294967295
61.706421 1625.6697 720 4294967295
62.78899 1625.6697 720 4294967295
63.979816 1625.8624 721 4294967295
65.064217 1625.8624 721 4294967295
66.260551 1626.0551 722 4294967295
67.460548 1626.2477 723 4294967295
68.548622 1626.2477 723 4294967295
69.754128 1626.4404 724 4294967295
71.082565 1626.8257 726 4294967295
72.297249 1627.0183 727 4294967295
73.515594 1627.2111 728 4294967295
74.612846 1627.2111 728 4294967295
75.8367 1627.4037 729 4294967295
76.935783 1627.4037 729 4294967295
78.165138 1627.5963 730 4294967295
79.398163 1627.7889 731 4294967295
80.634865 1627.9817 732 4294967295
81.739449 1627.9817 732 4294967295
82.706421 1627.7889 731 4294967295
18.902752 1627.6404 736 4285823099
20.014679 1627.6404 736 4285691514
21.126606 1627.6404 736 4286152065
22.165138 1627.2587 734 4286414986
23.157799 1626.6863 731 4286283144
24.220184 1626.4954 730 4285757320
25.278898 1626.3046 729 4284375667
26.333944 1626.1138 728 4283719268
27.385321 1625.923 727 4281877320
28.433027 1625.7321 726 4281942830
29.526606 1625.7321 726 4283982669
30.568808 1625.5413 725 4284571495
31.60734 1625.3505 724 4286282369
32.6422 1625.1597 723 4288123279
33.673393 1624.9688 722 4290294447
34.759632 1624.9688 722 4291281602
35.845871 1624.9688 722 4291084479
36.869724 1624.778 721 4290561217
37.954128 1624.778 721 4289113771
39.038532 1624.778 721 4287272608
40.122936 1624.778 721 4285693575
41.20734 1624.778 721 4285823095
42.291744 1624.778 721 4285165421
43.376148 1624.778 721 4284180062
44.460552 1624.778 721 4284311391
45.467892 1624.5872 720 4283195224
46.550457 1624.5872 720 4283326811
47.552292 1624.3964 719 4286539897
48.550457 1624.2056 718 4288250515
49.71376 1624.3964 719 4290542202
50.622017 1624.0146 717 4288371032
51.699081 1624.0146 717 4289152297
52.776146 1624.0146 717 4294020978
53.85321 1624.0146 717 4292126380
54.930275 1624.0146 717 4293310398
56.102753 1624.2056 718 4291803571
57.2789 1624.3964 719 4292461757
58.260551 1624.2056 718 4294374131
59.440369 1624.3964 719 4294967295
60.623852 1624.5872 720 4294967295
61.706421 1624.5872 720 4294967295
62.78899 1624.5872 720 4294967295
63.979816 1624.778 721 4294967295
65.064217 1624.778 721 4294967295
66.260551 1624.9688 722 4294967295
67.460548 1625.1597 723 4294967295
68.548622 1625.1597 723 4294967295
69.754128 1625.3505 724 4294967295
70.963303 1625.5413 725 4294967295
72.297249 1625.923 727 4294967295
73.269722 1625.7321 726 4294967295
74.612846 1626.1138 728 4294967295
75.8367 1626.3046 729 4294967295
76.935783 1626.3046 729 4294967295
78.165138 1626.4954 730 4294967295
79.398163 1626.6863 731 4294967295
80.634865 1626.8771 732 4294967295
81.603668 1626.6863 731 4294967295
82.84404 1626.8771 732 4294967295
17.820183 1626.7174 737 4285888638
18.933945 1626.7174 737 4285888638
20.014679 1626.5284 736 4285823099
21.056881 1626.1505 734 4285823099
22.128441 1625.9614 733 4285428089
23.157799 1625.5835 731 4285493882
24.220184 1625.3945 730 4285559679
25.278898 1625.2056 729 4285691266
26.333944 1625.0165 728 4284639618
27.385321 1624.8275 727 4283850358
28.480734 1624.8275 727 4283718223
29.526606 1624.6385 726 4284112981
30.568808 1624.4496 725 4285428105
31.60734 1624.2605 724 4291810026
32.6422 1624.0715 723 4292202976
33.673393 1623.8826 722 4292531685
34.759632 1623.8826 722 4290429127
35.845871 1623.8826 722 4288981681
36.869724 1623.6936 721 4287207330
37.954128 1623.6936 721 4284509817
39.038532 1623.6936 721 4283587418
40.122936 1623.6936 721 4283126868
41.20734 1623.6936 721 4284112229
42.291744 1623.6936 721 4285625468
43.302753 1623.5046 720 4286282871
44.310093 1623.3156 719 4287335302
45.390827 1623.3156 719 4288517005
46.471561 1623.3156 719 4288911507
47.471561 1623.1266 718 4289166223
48.550457 1623.1266 718 4287126639
49.629356 1623.1266 718 4288889391
50.708256 1623.1266 718 4288165667
51.787155 1623.1266 718 4289218396
52.776146 1622.9376 717 4294944187
53.85321 1622.9376 717 4293113789
54.930275 1622.9376 717 4292324273
56.102753 1623.1266 718 4291274135
57.2789 1623.3156 719 4292787375
58.260551 1623.1266 718 4293781738
59.440369 1623.3156 719 4294967295
60.623852 1623.5046 720 4294967295
61.706421 1623.5046 720 4294967295
62.895412 1623.6936 721 4294967295
63.979816 1623.6936 721 4294967295
65.064217 1623.6936 721 4294967295
66.260551 1623.8826 722 4294967295
67.460548 1624.0715 723 4294967295
68.664223 1624.2605 724 4294967295
69.871559 1624.4496 725 4294967295
70.963303 1624.4496 725 4294967295
72.176147 1624.6385 726 4294967295
73.392662 1624.8275 727 4294967295
74.612846 1625.0165 728 4294967295
75.8367 1625.2056 729 4294967295
76.935783 1625.2056 729 4294967295
78.034859 1625.2056 729 4294967295
79.266052 1625.3945 730 4294967295
80.500916 1625.5835 731 4294967295
81.603668 1625.5835 731 4294967295
17.878899 1625.978 739 4286019195
18.933945 1625.6036 737 4286084988
20.047707 1625.6036 737 4285889144
21.056881 1625.0422 734 4285691766
22.165138 1625.0422 734 4285428339
23.234863 1624.8551 733 4285691768
24.220184 1624.2936 730 4285625720
25.3211 1624.2936 730 4285625720
26.377981 1624.1064 729 4285821818
27.431192 1623.9193 728 4284900716
28.480734 1623.7321 727 4284571735
29.526606 1623.5449 726 4284637529
30.568808 1623.3578 725 4285954183
31.60734 1623.1707 724 4290691279
32.6422 1622.9835 723 4290104273
33.673393 1622.7964 722 4289380550
34.759632 1622.7964 722 4288460200
35.845871 1622.7964 722 4286749325
36.869724 1622.6091 721 4284778313
37.954128 1622.6091 721 4284646727
39.038532 1622.6091 721 4284114017
40.122936 1622.6091 721 4284771690
41.137615 1622.422 720 4286214530
42.220184 1622.422 720 4287398547
43.155964 1622.0477 718 4288188842
44.310093 1622.2349 719 4288649393
45.390827 1622.2349 719 4290880935
46.471561 1622.2349 719 4289565076
47.471561 1622.0477 718 4289885807
48.550457 1622.0477 718 4288438361
49.629356 1622.0477 718 4289803829
50.622017 1621.8606 717 4289935671
51.787155 1622.0477 718 4290933618
52.866055 1622.0477 718 4294223268
53.85321 1621.8606 717 4292652986
54.930275 1621.8606 717 4291271333
56.007339 1621.8606 717 4290810722
57.2789 1622.2349 719 4293837457
58.359634 1622.2349 719 4293649638
59.541283 1622.422 720 4294967295
60.623852 1622.422 720 4294967295
61.811008 1622.6091 721 4294967295
62.895412 1622.6091 721 4294967295
63.979816 1622.6091 721 4294967295
65.064217 1622.6091 721 4294967295
66.260551 1622.7964 722 4294967295
67.460548 1622.9835 723 4294967295
68.664223 1623.1707 724 4294967295
69.871559 1623.3578 725 4294967295
70.963303 1623.3578 725 4294967295
72.176147 1623.5449 726 4294967295
73.392662 1623.7321 727 4294967295
74.612846 1623.9193 728 4294967295
75.8367 1624.1064 729 4294967295
76.935783 1624.1064 729 4294967295
78.034859 1624.1064 729 4294967295
79.266052 1624.2936 730 4294967295
80.500916 1624.4807 731 4294967295
17.908257 1625.0459 740 4286415234
18.99633 1624.8606 739 4286481027
20.080734 1624.6753 738 4286284152
21.126606 1624.3046 736 4286152567
22.128441 1623.7487 733 4286086775
23.196331 1623.5634 732 4286020982
24.26055 1623.3779 731 4285954683
25.3211 1623.1926 730 4285823097
26.377981 1623.0073 729 4285888890
27.431192 1622.822 728 4285954683
28.480734 1622.6367 727 4286019193
29.526606 1622.4514 726 4285953400
30.568808 1622.2661 725 4284576373
31.660551 1622.2661 725 4286550420
32.697247 1622.0807 724 4286418057
33.730274 1621.8954 723 4285299320
34.759632 1621.7101 722 4287531350
35.845871 1621.7101 722 4288386659
36.93211 1621.7101 722 4294967171
37.954128 1621.5248 721 4294967190
39.038532 1621.5248 721 4294967295
40.122936 1621.5248 721 4294967295
41.137615 1621.3395 720 4294967295
42.148624 1621.1542 719 4294178029
43.229359 1621.1542 719 4293516517
44.310093 1621.1542 719 4290687418
45.390827 1621.1542 719 4290283154
46.392662 1620.9688 718 4286335831
47.471561 1620.9688 718 4288557109
48.550457 1620.9688 718 4292636275
49.629356 1620.9688 718 4292514692
50.708256 1620.9688 718 4292580485
51.787155 1620.9688 718 4292124843
52.866055 1620.9688 718 4293374910
53.944954 1620.9688 718 4292588476
55.023853 1620.9688 718 4289825170
56.198166 1621.1542 719 4289627750
57.2789 1621.1542 719 4293640866
58.458717 1621.3395 720 4294176750
59.541283 1621.3395 720 4294967295
60.623852 1621.3395 720 4294967295
61.811008 1621.5248 721 4294967295
62.895412 1621.5248 721 4294967295
64.088074 1621.7101 722 4294967295
65.174309 1621.7101 722 4294967295
66.260551 1621.7101 722 4294967295
67.57431 1622.0807 724 4294967295
68.664223 1622.0807 724 4294967295
69.871559 1622.2661 725 4294967295
70.963303 1622.2661 725 4294967295
72.176147 1622.4514 726 4294967295
73.392662 1622.6367 727 4294967295
74.612846 1622.822 728 4294967295
75.8367 1623.0073 729 4294967295
76.935783 1623.0073 729 4294967295
78.034859 1623.0073 729 4294967295
79.266052 1623.1926 730 4294967295
15.746789 1624.4771 743 4286811016
16.844036 1624.2936 742 4286481794
17.937614 1624.1101 741 4286349959
19.058716 1624.1101 741 4286481544
20.14679 1623.9266 740 4286546822
21.196331 1623.5596 738 4286415236
22.165138 1622.8257 734 4286152569
23.234863 1622.6422 733 4286020982
24.26055 1622.2753 731 4285758072
25.3211 1622.0918 730 4285626486
26.377981 1621.9082 729 4285495670
27.431192 1621.7247 728 4285429876
28.480734 1621.5413 727 4285560431
29.576147 1621.5413 727 4285560431
30.620184 1621.3578 726 4283986276
31.660551 1621.1743 725 4285367673
32.697247 1620.9908 724 4285628021
33.730274 1620.8074 723 4286549123
34.818348 1620.8074 723 4290089345
35.845871 1620.6239 722 4294563270
36.93211 1620.6239 722 4294967295
38.018349 1620.6239 722 4294967295
39.038532 1620.4404 721 4294967295
40.122936 1620.4404 721 4294967295
41.20734 1620.4404 721 4294967295
42.220184 1620.2568 720 4293783021
43.302753 1620.2568 720 4293121255
44.310093 1620.0734 719 4289831605
45.390827 1620.0734 719 4289161314
46.550457 1620.2568 720 4286858559
47.552292 1620.0734 719 4289013783
48.633026 1620.0734 719 4294936438
49.71376 1620.0734 719 4292454328
50.794495 1620.0734 719 4293243844
51.875229 1620.0734 719 4292721091
52.955963 1620.0734 719 4292457919
53.944954 1619.8899 718 4293112753
55.117432 1620.0734 719 4289428345
56.293579 1620.2568 720 4289030466
57.376148 1620.2568 720 4294952350
58.458717 1620.2568 720 4294177011
59.6422 1620.4404 721 4294967295
60.726604 1620.4404 721 4294967295
61.811008 1620.4404 721 4294967295
63.001835 1620.6239 722 4294967295
64.088074 1620.6239 722 4294967295
65.174309 1620.6239 722 4294967295
66.372475 1620.8074 723 4294967295
67.57431 1620.9908 724 4294967295
68.664223 1620.9908 724 4294967295
69.871559 1621.1743 725 4294967295
70.963303 1621.1743 725 4294967295
72.176147 1621.3578 726 4294967295
73.392662 1621.5413 727 4294967295
74.612846 1621.7247 728 4294967295
75.8367 1621.9082 729 4294967295
77.064217 1622.0918 730 4294967295
78.165138 1622.0918 730 4294967295
79.266052 1622.0918 730 4294967295
16.844036 1623.1707 742 4287990648
17.966972 1623.1707 742 4287662739
19.089909 1623.1707 742 4288715427
20.179817 1622.989 741 4288585378
21.231194 1622.6257 739 4288782501
22.238533 1622.0807 736 4288913824
23.273394 1621.7174 734 4288913824
24.26055 1621.1725 731 4288980384
25.3211 1620.9908 730 4289111970
26.377981 1620.8092 729 4289374629
27.431192 1620.6276 728 4289374629
28.52844 1620.6276 728 4290228139
29.576147 1620.4459 727 4291346363
30.620184 1620.2642 726 4292662462
31.660551 1620.0825 725 4294109908
32.752293 1620.0825 725 4294967294
33.730274 1619.7192 723 4294967295
34.818348 1619.7192 723 4294967295
35.906422 1619.7192 723 4294967295
36.93211 1619.5376 722 4294967295
38.018349 1619.5376 722 4294967295
39.104588 1619.5376 722 4294967295
40.122936 1619.356 721 4291807196
41.20734 1619.356 721 4289297331
42.291744 1619.356 721 4286928783
43.376148 1619.356 721 4287840330
44.385323 1619.1743 720 4285405732
45.544952 1619.356 721 4288614400
46.629356 1619.356 721 4289338121
47.71376 1619.356 721 4289278277
48.715595 1619.1743 720 4294937246
49.798164 1619.1743 720 4293968330
50.880733 1619.1743 720 4293770951
51.875229 1618.9927 719 4293377740
52.955963 1618.9927 719 4292127673
54.036697 1618.9927 719 4291860101
55.117432 1618.9927 719 4287517507
56.293579 1619.1743 720 4287781458
57.473396 1619.356 721 4294953665
58.557796 1619.356 721 4294901502
59.6422 1619.356 721 4294967295
60.726604 1619.356 721 4294967295
61.915596 1619.5376 722 4294967295
63.001835 1619.5376 722 4294967295
64.088074 1619.5376 722 4294967295
65.284401 1619.7192 723 4294967295
66.484406 1619.9009 724 4294967295
67.57431 1619.9009 724 4294967295
68.664223 1619.9009 724 4294967295
69.871559 1620.0825 725 4294967295
71.082565 1620.2642 726 4294967295
72.176147 1620.2642 726 4294967295
73.392662 1620.4459 727 4294967295
74.612846 1620.6276 728 4294967295
75.8367 1620.8092 729 4294967295
77.064217 1620.9908 730 4294967295
78.165138 1620.9908 730 4294967295
16.871559 1622.2275 743 4288378476
17.966972 1622.0477 742 4287136897
19.089909 1622.0477 742 4287597448
20.212845 1622.0477 742 4287992472
21.300917 1621.8679 741 4288584352
22.275229 1621.1487 737 4289176993
23.273394 1620.6091 734 4289176993
24.26055 1620.0697 731 4289636779
25.363302 1620.0697 731 4289636779
26.422018 1619.8899 730 4289900203
27.477064 1619.7101 729 4289834409
28.52844 1619.5303 728 4291147703
29.625689 1619.5303 728 4291937219
30.67156 1619.3505 727 4293515222
31.713762 1619.1707 726 4294962668
32.752293 1618.9908 725 4294967295
33.787155 1618.811 724 4294967295
34.818348 1618.6312 723 4294967295
35.906422 1618.6312 723 4294967295
36.994495 1618.6312 723 4294967295
38.018349 1618.4514 722 4294967295
39.104588 1618.4514 722 4287415523
40.190826 1618.4514 722 4286033870
41.277065 1618.4514 722 4288241259
42.291744 1618.2716 721 4285214781
43.376148 1618.2716 721 4289927471
44.460552 1618.2716 721 4289401127
45.544952 1618.2716 721 4290186248
46.629356 1618.2716 721 4290844435
47.71376 1618.2716 721 4289477707
48.798164 1618.2716 721 4294939040
49.882568 1618.2716 721 4293707484
50.966972 1618.2716 721 4293181140
51.963303 1618.0918 720 4293706187
53.045872 1618.0918 720 4292192948
54.128441 1618.0918 720 4291658870
55.21101 1618.0918 720 4288632392
56.388992 1618.2716 721 4287777612
57.473396 1618.2716 721 4294954703
58.557796 1618.2716 721 4294967295
59.6422 1618.2716 721 4294967295
60.829357 1618.4514 722 4294967295
61.915596 1618.4514 722 4294967295
63.001835 1618.4514 722 4294967295
64.088074 1618.4514 722 4294967295
65.284401 1618.6312 723 4294967295
66.484406 1618.811 724 4294967295
67.688072 1618.9908 725 4294967295
68.779816 1618.9908 725 4294967295
69.988991 1619.1707 726 4294967295
71.082565 1619.1707 726 4294967295
72.176147 1619.1707 726 4294967295
73.392662 1619.3505 727 4294967295
74.612846 1619.5303 728 4294967295
75.8367 1619.7101 729 4294967295
76.935783 1619.7101 729 4294967295
78.165138 1619.8899 730 4294967295
15.823853 1621.6367 746 4283892224
16.899082 1621.2808 744 4284089344
17.99633 1621.1028 743 4284227073
19.121101 1621.1028 743 4285411604
20.245872 1621.1028 743 4284364619
21.300917 1620.7468 741 4286535531
22.275229 1620.0349 737 4286737512
23.273394 1619.501 734 4287724407
24.300917 1619.1449 732 4288119426
25.363302 1618.9669 731 4288119426
26.422018 1618.7889 730 4288778374
27.477064 1618.611 729 4288778374
28.52844 1618.433 728 4288843152
29.625689 1618.433 728 4288777359
30.67156 1618.255 727 4289497232
31.713762 1618.077 726 4289431439
32.752293 1617.899 725 4289560449
33.844036 1617.899 725 4289231484
34.877064 1617.7211 724 4288045942
35.966972 1617.7211 724 4286861669
37.056881 1617.7211 724 4285220437
38.082569 1617.5431 723 4282522924
39.170643 1617.5431 723 4284615424
40.190826 1617.3651 722 4285997062
41.277065 1617.3651 722 4288288261
42.363304 1617.3651 722 4288419847
43.376148 1617.1871 721 4289860120
44.460552 1617.1871 721 4290057242
45.544952 1617.1871 721 4290186248
46.629356 1617.1871 721 4290844435
47.71376 1617.1871 721 4289609548
48.798164 1617.1871 721 4294941865
49.882568 1617.1871 721 4294166729
50.966972 1617.1871 721 4291863974
52.051376 1617.1871 721 4291794847
53.13578 1617.1871 721 4291663260
54.128441 1617.0092 720 4291194748
55.304588 1617.1871 721 4288168527
56.388992 1617.1871 721 4288109407
57.473396 1617.1871 721 4294957790
58.557796 1617.1871 721 4294967295
59.743118 1617.3651 722 4294967295
60.829357 1617.3651 722 4294967295
61.915596 1617.3651 722 4294967295
63.001835 1617.3651 722 4294967295
64.196327 1617.5431 723 4294967295
65.394493 1617.7211 724 4294967295
66.484406 1617.7211 724 4294967295
67.688072 1617.899 725 4294967295
68.779816 1617.899 725 4294967295
69.988991 1618.077 726 4294967295
71.082565 1618.077 726 4294967295
72.297249 1618.255 727 4294967295
73.515594 1618.433 728 4294967295
74.612846 1618.433 728 4294967295
75.8367 1618.611 729 4294967295
77.064217 1618.7889 730 4294967295
78.165138 1618.7889 730 4294967295
15.823853 1620.5065 746 4285530112
16.926605 1620.3303 745 4285661184
18.025688 1620.1542 744 4285333504
19.152294 1620.1542 744 4285661184
20.245872 1619.978 743 4286324508
21.370642 1619.978 743 4286390301
22.238533 1618.745 736 4286199600
23.350458 1618.745 736 4286462772
24.341284 1618.2166 733 4286795861
25.405504 1618.0404 732 4286993241
26.422018 1617.6881 730 4287259231
27.477064 1617.512 729 4287259231
28.52844 1617.3358 728 4287062879
29.625689 1617.3358 728 4286997086
30.67156 1617.1597 727 4287586143
31.713762 1616.9835 726 4286599248
32.807339 1616.9835 726 4287316028
33.844036 1616.8074 725 4286526768
34.93578 1616.8074 725 4287701551
36.027523 1616.8074 725 4286122518
37.056881 1616.6312 724 4288675864
38.082569 1616.4551 723 4288675864
39.170643 1616.4551 723 4289659904
40.258717 1616.4551 723 4290580995
41.34679 1616.4551 723 4290317839
42.363304 1616.2789 722 4290317839
43.449543 1616.2789 722 4290383104
44.535778 1616.2789 722 4291172362
45.622017 1616.2789 722 4290448714
46.708256 1616.2789 722 4289988163
47.71376 1616.1028 721 4289216000
48.798164 1616.1028 721 4294942818
49.882568 1616.1028 721 4294165723
50.966972 1616.1028 721 4290810280
52.051376 1616.1028 721 4291460476
53.13578 1616.1028 721 4290605167
54.220184 1616.1028 721 4290137672
55.304588 1616.1028 721 4289677121
56.388992 1616.1028 721 4289097084
57.473396 1616.1028 721 4294958572
58.656879 1616.2789 722 4294967295
59.743118 1616.2789 722 4294967295
60.829357 1616.2789 722 4294967295
61.915596 1616.2789 722 4294967295
63.108257 1616.4551 723 4294967295
64.196327 1616.4551 723 4294967295
65.394493 1616.6312 724 4294967295
66.484406 1616.6312 724 4294967295
67.688072 1616.8074 725 4294967295
68.779816 1616.8074 725 4294967295
69.988991 1616.9835 726 4294967295
71.082565 1616.9835 726 4294967295
72.297249 1617.1597 727 4294967295
73.515594 1617.3358 728 4294967295
74.737617 1617.512 729 4294967295
75.8367 1617.512 729 4294967295
77.064217 1617.6881 730 4294967295
78.165138 1617.6881 730 4294967295
15.875229 1619.7247 748 4285661704
16.954128 1619.3761 746 4286385170
18.084404 1619.3761 746 4286123018
19.183487 1619.2018 745 4285596674
20.278898 1619.0275 744 4285923328
21.405504 1619.0275 744 4285923328
22.275229 1617.8074 737 4285792768
23.38899 1617.8074 737 4285924610
24.341284 1617.1101 733 4285726720
25.405504 1616.9358 732 4285333504
26.422018 1616.5872 730 4285793281
27.522936 1616.5872 730 4286122503
28.576147 1616.4128 729 4285926657
29.625689 1616.2385 728 4285860864
30.67156 1616.0642 727 4286318082
31.766972 1616.0642 727 4286383876
32.807339 1615.8899 726 4287172096
33.844036 1615.7156 725 4287632643
34.93578 1615.7156 725 4288418816
36.027523 1615.7156 725 4288418816
37.119267 1615.7156 725 4289402633
38.14679 1615.5413 724 4290192150
39.170643 1615.3669 723 4290254594
40.258717 1615.3669 723 4289991680
41.34679 1615.3669 723 4289921296
42.434864 1615.3669 723 4289593355
43.449543 1615.1926 722 4289462541
44.535778 1615.1926 722 4294792031
45.622017 1615.1926 722 4292110720
46.708256 1615.1926 722 4288163396
47.794495 1615.1926 722 4289344061
48.798164 1615.0183 721 4294941092
49.882568 1615.0183 721 4294030012
50.966972 1615.0183 721 4290345604
52.051376 1615.0183 721 4290070610
53.13578 1615.0183 721 4287899697
54.220184 1615.0183 721 4289478180
55.304588 1615.0183 721 4292636243
56.388992 1615.0183 721 4289694363
57.570641 1615.1926 722 4294961658
58.656879 1615.1926 722 4294967295
59.743118 1615.1926 722 4294967295
60.829357 1615.1926 722 4294967295
62.020184 1615.3669 723 4294967295
63.108257 1615.3669 723 4294967295
64.304588 1615.5413 724 4294967295
65.504585 1615.7156 725 4294967295
66.596329 1615.7156 725 4294967295
67.688072 1615.7156 725 4294967295
68.779816 1615.7156 725 4294967295
69.988991 1615.8899 726 4294967295
71.201836 1616.0642 727 4294967295
72.41835 1616.2385 728 4294967295
73.515594 1616.2385 728 4294967295
74.737617 1616.4128 729 4294967295
75.8367 1616.4128 729 4294967295
77.064217 1616.5872 730 4294967295
15.875229 1618.5908 748 4286521419
17.009174 1618.5908 748 4286323784
18.084404 1618.2458 746 4286782495
19.21468 1618.2458 746 4285861393
20.245872 1617.7284 743 4286776576
21.370642 1617.7284 743 4286907905
22.275229 1616.6936 737 4286974216
23.38899 1616.6936 737 4286908423
24.381651 1616.1761 734 4287561740
25.447706 1616.0037 733 4287496203
26.466055 1615.6587 731 4287627268
27.522936 1615.4862 730 4288743702
28.576147 1615.3137 729 4288090896
29.625689 1615.1412 728 4288090896
30.67156 1614.9688 727 4288351504
31.766972 1614.9688 727 4288219917
32.807339 1614.7964 726 4288743424
33.900917 1614.7964 726 4289203971
34.93578 1614.6239 725 4289532682
36.027523 1614.6239 725 4289664524
37.119267 1614.6239 725 4290188288
38.14679 1614.4514 724 4290714632
39.236698 1614.4514 724 4290382848
40.258717 1614.2789 723 4290251264
41.34679 1614.2789 723 4289725186
42.434864 1614.2789 723 4292093734
43.522934 1614.2789 723 4290530648
44.535778 1614.1064 722 4294478227
45.622017 1614.1064 722 4293830602
46.708256 1614.1064 722 4289619850
47.794495 1614.1064 722 4289211189
48.880733 1614.1064 722 4294939292
49.882568 1613.934 721 4294030014
51.053211 1614.1064 722 4290411399
52.051376 1613.934 721 4290530618
53.13578 1613.934 721 4289806894
54.220184 1613.934 721 4289215273
55.304588 1613.934 721 4292702559
56.484406 1614.1064 722 4290551210
57.570641 1614.1064 722 4294964223
58.656879 1614.1064 722 4294967295
59.743118 1614.1064 722 4294967295
60.93211 1614.2789 723 4294967295
62.020184 1614.2789 723 4294967295
63.21468 1614.4514 724 4294967295
64.304588 1614.4514 724 4294967295
65.504585 1614.6239 725 4294967295
66.596329 1614.6239 725 4294967295
67.801834 1614.7964 726 4294967295
68.895416 1614.7964 726 4294967295
70.106422 1614.9688 727 4294967295
71.201836 1614.9688 727 4294967295
72.41835 1615.1412 728 4294967295
73.638535 1615.3137 729 4294967295
74.737617 1615.3137 729 4294967295
75.963303 1615.4862 730 4294967295
19.277063 1617.4569 748 4285925937
20.344954 1617.1156 746 4286447621
21.196331 1615.7505 738 4286316546
22.311926 1615.7505 738 4286775296
23.427523 1615.7505 738 4286840832
24.462385 1615.4092 736 4287365120
25.489908 1615.0679 734 4287496194
26.510092 1614.7266 732 4287561736
27.522936 1614.3854 730 4288021007
28.576147 1614.2147 729 4287956480
29.625689 1614.0441 728 4287956480
30.67156 1613.8734 727 4288282630
31.766972 1613.8734 727 4288480010
32.807339 1613.7028 726 4288544768
33.900917 1613.7028 726 4288610304
34.994495 1613.7028 726 4289265921
36.027523 1613.5321 725 4289134592
37.119267 1613.5321 725 4289265665
38.21101 1613.5321 725 4292160045
39.236698 1613.3615 724 4290857273
40.326607 1613.3615 724 4292765270
41.416515 1613.3615 724 4294487680
42.50642 1613.3615 724 4294952344
43.596329 1613.3615 724 4294622414
44.611008 1613.1908 723 4294951380
45.699081 1613.1908 723 4294621147
46.787155 1613.1908 723 4290607518
47.875229 1613.1908 723 4289998406
48.880733 1613.0201 722 4291906403
49.966972 1613.0201 722 4290989415
51.053211 1613.0201 722 4289344334
52.13945 1613.0201 722 4290063655
53.225689 1613.0201 722 4291182392
54.311928 1613.0201 722 4289941070
55.398167 1613.0201 722 4293428356
56.484406 1613.0201 722 4290815924
57.570641 1613.0201 722 4294966271
58.755962 1613.1908 723 4294967295
59.844036 1613.1908 723 4294967295
60.93211 1613.1908 723 4294967295
62.020184 1613.1908 723 4294967295
63.21468 1613.3615 724 4294967295
64.412842 1613.5321 725 4294967295
65.504585 1613.5321 725 4294967295
66.70826 1613.7028 726 4294967295
67.801834 1613.7028 726 4294967295
68.895416 1613.7028 726 4294967295
70.106422 1613.8734 727 4294967295
71.321098 1614.0441 728 4294967295
72.41835 1614.0441 728 4294967295
73.638535 1614.2147 729 4294967295
74.737617 1614.2147 729 4294967295
75.963303 1614.3854 730 4294967295
77.192657 1614.5559 731 4294967295
20.344954 1615.9854 746 4286978064
21.475229 1615.9854 746 4286583306
22.605505 1615.9854 746 4287300378
23.427523 1614.6349 738 4286906389
24.462385 1614.2972 736 4287234048
25.574312 1614.2972 736 4287561728
26.554129 1613.7908 733 4287823890
27.614679 1613.6221 732 4288020500
28.623854 1613.2844 730 4287954944
29.67523 1613.1156 729 4288348162
30.722937 1612.9468 728 4288282624
31.766972 1612.778 727 4288676864
32.807339 1612.6091 726 4288808211
33.900917 1612.6091 726 4289729313
34.994495 1612.6091 726 4289996610
36.088074 1612.6091 726 4290062403
37.181652 1612.6091 726 4289800721
38.21101 1612.4404 725 4290984995
39.302753 1612.4404 725 4290468713
40.394497 1612.4404 725 4293889949
41.48624 1612.4404 725 4293309633
42.57798 1612.4404 725 4293507011
43.669724 1612.4404 725 4293309898
44.686237 1612.2716 724 4293309898
45.776146 1612.2716 724 4294095816
46.866055 1612.2716 724 4289424513
47.875229 1612.1028 723 4289472047
48.963303 1612.1028 723 4290196027
49.966972 1611.934 722 4290655051
51.053211 1611.934 722 4289799998
52.13945 1611.934 722 4289929227
53.225689 1611.934 722 4292429361
54.311928 1611.934 722 4290599516
55.398167 1611.934 722 4293626250
56.484406 1611.934 722 4290949307
57.570641 1611.934 722 4294967295
58.755962 1612.1028 723 4294967295
59.844036 1612.1028 723 4294967295
60.93211 1612.1028 723 4294639615
62.124771 1612.2716 724 4294967295
63.321102 1612.4404 725 4294967295
64.412842 1612.4404 725 4294967295
65.614677 1612.6091 726 4294967295
66.70826 1612.6091 726 4294967295
67.801834 1612.6091 726 4294967295
69.011009 1612.778 727 4294967295
70.106422 1612.778 727 4294967295
71.321098 1612.9468 728 4294967295
72.41835 1612.9468 728 4294967295
73.638535 1613.1156 729 4294967295
74.862389 1613.2844 730 4294967295
75.963303 1613.2844 730 4294967295
77.192657 1613.4532 731 4294967295
14.812844 1615.6899 751 4290467418
15.926605 1615.5229 750 4288242802
17.06422 1615.5229 750 4287519335
18.172478 1615.356 749 4289295985
19.277063 1615.189 748 4290480002
20.344954 1614.8551 746 4290412664
21.475229 1614.8551 746 4290346871
23.427523 1613.5193 738 4289819260
24.543119 1613.5193 738 4289685341
25.616514 1613.3523 737 4288567117
26.686239 1613.1853 736 4288959326
27.706423 1612.8513 734 4288893277
28.719267 1612.5175 732 4289354847
29.724771 1612.1835 730 4289946984
30.722937 1611.8495 728 4290077537
31.766972 1611.6826 727 4290406502
32.862385 1611.6826 727 4292120959
33.957798 1611.6826 727 4292515717
34.994495 1611.5156 726 4292908715
36.088074 1611.5156 726 4292711335
37.181652 1611.5156 726 4292117636
38.21101 1611.3486 725 4292710029
39.302753 1611.3486 725 4293042613
40.394497 1611.3486 725 4294951895
41.48624 1611.3486 725 4294030791
42.57798 1611.3486 725 4291596450
43.669724 1611.3486 725 4289943714
44.686237 1611.1816 724 4289417114
45.776146 1611.1816 724 4289936195
46.866055 1611.1816 724 4287699233
47.955963 1611.1816 724 4289727515
48.963303 1611.0146 723 4290385444
50.051376 1611.0146 723 4289928755
51.053211 1610.8477 722 4290389306
52.13945 1610.8477 722 4290064938
53.225689 1610.8477 722 4293091416
54.311928 1610.8477 722 4290867573
55.398167 1610.8477 722 4292972693
56.579815 1611.0146 723 4291015613
57.667889 1611.0146 723 4294967295
58.755962 1611.0146 723 4294967295
59.944954 1611.1816 724 4294967295
61.034863 1611.1816 724 4294967295
62.229359 1611.3486 725 4294967295
63.321102 1611.3486 725 4294967295
64.521103 1611.5156 726 4294967295
65.614677 1611.5156 726 4294967295
66.820183 1611.6826 727 4294967295
67.915596 1611.6826 727 4294967295
69.126602 1611.8495 728 4294967295
70.223854 1611.8495 728 4294967295
71.321098 1611.8495 728 4294967295
72.539452 1612.0165 729 4294967295
73.761467 1612.1835 730 4294967295
74.862389 1612.1835 730 4294967295
76.089905 1612.3505 731 4294967295
77.192657 1612.3505 731 4294967295
14.788991 1614.3854 750 4290529368
15.926605 1614.3854 750 4287716446
17.036697 1614.2202 749 4287650653
18.14312 1614.0551 748 4289034355
19.277063 1614.0551 748 4289955457
20.344954 1613.7247 746 4289693571
21.475229 1613.7247 746 4289693571
22.53211 1613.3945 744 4289692817
23.466055 1612.5688 739 4289627023
24.583487 1612.5688 739 4289692300
25.658716 1612.4037 738 4289889680
26.730276 1612.2385 737 4289889428
27.798164 1612.0734 736 4289955477
28.814678 1611.7432 734 4290217879
29.774311 1611.2477 731 4290283672
30.774311 1610.9175 729 4290412955
31.766972 1610.5872 727 4290610591
32.862385 1610.5872 727 4291863456
33.957798 1610.5872 727 4292060835
35.053211 1610.5872 727 4292257208
36.088074 1610.422 726 4291467692
37.181652 1610.422 726 4290936708
38.27523 1610.422 726 4291397259
39.302753 1610.2568 725 4292385964
40.394497 1610.2568 725 4292846515
41.48624 1610.2568 725 4293174705
42.57798 1610.2568 725 4291069072
43.669724 1610.2568 725 4290270316
44.761467 1610.2568 725 4288033355
45.776146 1610.0918 724 4290385429
46.866055 1610.0918 724 4290319635
47.955963 1610.0918 724 4290517030
49.045872 1610.0918 724 4290648617
50.051376 1609.9266 723 4290125588
51.13945 1609.9266 723 4290915105
52.227524 1609.9266 723 4290398018
53.315598 1609.9266 723 4292832360
54.403671 1609.9266 723 4290542454
55.491745 1609.9266 723 4292713622
56.675228 1610.0918 724 4291279294
57.765137 1610.0918 724 4294967295
58.855045 1610.0918 724 4294967295
59.944954 1610.0918 724 4294967295
61.137615 1610.2568 725 4294967295
62.229359 1610.2568 725 4294967295
63.427525 1610.422 726 4294967295
64.521103 1610.422 726 4294967295
65.614677 1610.422 726 4294967295
66.820183 1610.5872 727 4294967295
67.915596 1610.5872 727 4294967295
69.126602 1610.7523 728 4294967295
70.223854 1610.7523 728 4294967295
71.440369 1610.9175 729 4294967295
72.539452 1610.9175 729 4294967295
73.884407 1611.2477 731 4294967295
74.98716 1611.2477 731 4294967295
76.343117 1611.578 733 4294967295
77.449539 1611.578 733 4294967295
79.337616 1612.5688 739 4294967295
17.091743 1613.411 751 4287112741
18.201836 1613.2477 750 4288172329
19.308256 1613.0844 749 4289488189
20.344954 1612.5945 746 4289688942
21.440367 1612.4312 745 4289688942
22.53211 1612.2679 744 4290020485
23.620184 1612.1046 743 4291007380
24.664221 1611.778 741 4290745504
25.700918 1611.4514 739 4291535021
26.774311 1611.2881 738 4291274165
27.844036 1611.1248 737 4291734716
28.910091 1610.9614 736 4291997118
29.823853 1610.3082 732 4292457669
30.825687 1609.9817 730 4291400382
31.873394 1609.8184 729 4290742451
32.917431 1609.655 728 4291401347
34.014679 1609.655 728 4291796105
35.053211 1609.4917 727 4292189103
36.148624 1609.4917 727 4291860138
37.181652 1609.3285 726 4290402947
38.27523 1609.3285 726 4287639642
39.368809 1609.3285 726 4289015093
40.462387 1609.3285 726 4289475644
41.555962 1609.3285 726 4289406758
42.57798 1609.1652 725 4288551449
43.669724 1609.1652 725 4289597723
44.761467 1609.1652 725 4289795358
45.85321 1609.1652 725 4290253840
46.944954 1609.1652 725 4290451476
48.036697 1609.1652 725 4290518575
49.128441 1609.1652 725 4291703106
50.13578 1609.0018 724 4290525993
51.225689 1609.0018 724 4292170561
52.315598 1609.0018 724 4290600036
53.405506 1609.0018 724 4292179067
54.495415 1609.0018 724 4290083951
55.58532 1609.0018 724 4293439395
56.770641 1609.1652 725 4290952402
57.862385 1609.1652 725 4294967295
58.954128 1609.1652 725 4294967295
60.045872 1609.1652 725 4294967295
61.240368 1609.3285 726 4294967295
62.333946 1609.3285 726 4294967295
63.427525 1609.3285 726 4294967295
64.521103 1609.3285 726 4294967295
65.614677 1609.3285 726 4294967295
66.820183 1609.4917 727 4294967295
67.915596 1609.4917 727 4294967295
69.126602 1609.655 728 4294967295
70.223854 1609.655 728 4294967295
71.440369 1609.8184 729 4294967295
72.539452 1609.8184 729 4294967295
74.499084 1610.9614 736 4294967295
75.361465 1610.6349 734 4294967295
77.102753 1611.4514 739 4294967295
78.220184 1611.4514 739 4294967295
79.337616 1611.4514 739 4294967295
80.455048 1611.4514 739 4294967295
19.308256 1611.9486 749 4288557082
20.344954 1611.4642 746 4288169027
21.440367 1611.3027 745 4289090129
22.53211 1611.1412 744 4288636005
23.620184 1610.9799 743 4289820023
24.704588 1610.8184 742 4288903550
25.74312 1610.4954 740 4290614425
26.818348 1610.334 739 4289830062
27.889908 1610.1725 738 4289566891
28.957798 1610.011 737 4290615719
29.922935 1609.5266 734 4290549926
30.92844 1609.2036 732 4291005606
31.926605 1608.8807 730 4290084504
32.972477 1608.7192 729 4289884521
34.07156 1608.7192 729 4290542708
35.111927 1608.5579 728 4291199627
36.209175 1608.5579 728 4290870663
37.244038 1608.3964 727 4289811549
38.27523 1608.2349 726 4287574843
39.368809 1608.2349 726 4290059809
40.462387 1608.2349 726 4289665052
41.555962 1608.2349 726 4290252829
42.64954 1608.2349 726 4290515745
43.743118 1608.2349 726 4290449177
44.836697 1608.2349 726 4290843935
45.85321 1608.0734 725 4290517001
46.944954 1608.0734 725 4291174931
48.036697 1608.0734 725 4290588969
49.128441 1608.0734 725 4291312693
50.220184 1608.0734 725 4290266169
51.311928 1608.0734 725 4291581773
52.403671 1608.0734 725 4290667362
53.495415 1608.0734 725 4291851636
54.587154 1608.0734 725 4289560186
55.678898 1608.0734 725 4294297282
56.770641 1608.0734 725 4292730594
57.959633 1608.2349 726 4294967295
59.053211 1608.2349 726 4294967295
60.14679 1608.2349 726 4294967295
61.240368 1608.2349 726 4294967295
62.333946 1608.2349 726 4294967295
63.533943 1608.3964 727 4294967295
64.629356 1608.3964 727 4294967295
65.72477 1608.3964 727 4294967295
66.932114 1608.5579 728 4294967295
68.14312 1608.7192 729 4294967295
69.242203 1608.7192 729 4294967295
70.341286 1608.7192 729 4294967295
71.559631 1608.8807 730 4294967295
72.660553 1608.8807 730 4294967295
74.744957 1610.1725 738 4294967295
75.86055 1610.1725 738 4294967295
77.229355 1610.4954 740 4294967295
78.348625 1610.4954 740 4294967295
79.467888 1610.4954 740 4294967295
20.411009 1610.6532 748 4286644992
21.544954 1610.6532 748 4286644992
22.568808 1610.1743 745 4286582020
23.658716 1610.0146 744 4287042571
24.744955 1609.8551 743 4286717734
25.78532 1609.5358 741 4289810004
26.862385 1609.3761 740 4287776359
27.93578 1609.2166 739 4285276224
29.005505 1609.0569 738 4286649875
30.07156 1608.8972 737 4287307806
31.031193 1608.4183 734 4287504408
32.033028 1608.0991 732 4287570201
33.082569 1607.9395 731 4287830288
34.128441 1607.7798 730 4287435530
35.170643 1607.6202 729 4288221953
36.269726 1607.6202 729 4288221953
37.368809 1607.6202 729 4289204234
38.403671 1607.4606 728 4289664785
39.500916 1607.4606 728 4289992733
40.598164 1607.4606 728 4290190112
41.625687 1607.3009 727 4290191146
42.64954 1607.1412 726 4290520110
43.743118 1607.1412 726 4290456105
44.836697 1607.1412 726 4290719020
45.930275 1607.1412 726 4290921251
47.023853 1607.1412 726 4291579437
48.117432 1607.1412 726 4290989633
49.21101 1607.1412 726 4291450184
50.220184 1606.9817 725 4291058774
51.311928 1606.9817 725 4291650911
52.403671 1606.9817 725 4290538079
53.495415 1606.9817 725 4291656303
54.587154 1606.9817 725 4290153353
55.678898 1606.9817 725 4294627278
56.866055 1607.1412 726 4293256427
57.959633 1607.1412 726 4294967295
59.053211 1607.1412 726 4294967295
60.14679 1607.1412 726 4294967295
61.343121 1607.3009 727 4294967295
62.543118 1607.4606 728 4294967295
63.746788 1607.6202 729 4294967295
64.737617 1607.4606 728 4294967295
65.834862 1607.4606 728 4294967295
67.044037 1607.6202 729 4294967295
68.256882 1607.7798 730 4294967295
69.473396 1607.9395 731 4294967295
70.458717 1607.7798 730 4294967295
71.559631 1607.7798 730 4294967295
73.750458 1609.2166 739 4294967295
74.867889 1609.2166 739 4294967295
76.110092 1609.3761 740 4294967295
77.355965 1609.5358 741 4294967295
78.477066 1609.5358 741 4294967295
79.598167 1609.5358 741 4294967295
19.277063 1609.5193 748 4286580489
20.411009 1609.5193 748 4287367179
21.475229 1609.2036 746 4287367179
22.568808 1609.0459 745 4287561730
23.658716 1608.8881 744 4287824646
24.744955 1608.7302 743 4288223749
25.827522 1608.5725 742 4288750093
26.862385 1608.2568 740 4288619584
27.93578 1608.0991 739 4286711586
29.053211 1608.0991 739 4288348161
30.121101 1607.9413 738 4288544772
31.185322 1607.7834 737 4288348168
32.245872 1607.6257 736 4289005586
33.247707 1607.3101 734 4288810249
34.242203 1606.9945 732 4288678406
35.288074 1606.8367 731 4289202704
36.330276 1606.679 730 4289531669
37.431194 1606.679 730 4289926426
38.532108 1606.679 730 4290255135
39.566971 1606.5211 729 4289927710
40.666054 1606.5211 729 4290190625
41.695412 1606.3633 728 4290126368
42.7211 1606.2056 727 4290389796
43.816513 1606.2056 727 4290258988
44.911926 1606.2056 727 4291114296
46.007339 1606.2056 727 4290791741
47.102753 1606.2056 727 4291186499
48.198166 1606.2056 727 4290662471
49.293579 1606.2056 727 4291385938
50.304588 1606.0477 726 4290666335
51.484406 1606.2056 727 4291258215
52.491745 1606.0477 726 4290276188
53.58532 1606.0477 726 4291789427
54.678898 1606.0477 726 4290548879
55.772476 1606.0477 726 4294101701
56.961468 1606.2056 727 4293256681
58.056881 1606.2056 727 4294967295
59.152294 1606.2056 727 4294967295
60.348625 1606.3633 728 4294967295
61.548622 1606.5211 729 4294967295
62.647705 1606.5211 729 4294967295
63.85321 1606.679 730 4294967295
64.845871 1606.5211 729 4294967295
65.944954 1606.5211 729 4294967295
67.15596 1606.679 730 4294967295
68.256882 1606.679 730 4294967295
69.473396 1606.8367 731 4294967295
70.458717 1606.679 730 4294967295
72.394493 1607.7834 737 4294967295
73.750458 1608.0991 739 4294967295
74.867889 1608.0991 739 4294967295
76.110092 1608.2568 740 4294967295
77.355965 1608.4147 741 4294967295
78.605507 1608.5725 742 4294967295
79.728439 1608.5725 742 4294967295
18.201836 1608.6973 750 4286516507
19.308256 1608.5413 749 4286516507
20.444036 1608.5413 749 4287105297
21.544954 1608.3854 748 4287368726
22.6789 1608.3854 748 4287629330
23.735781 1608.0734 746 4287563537
24.825687 1607.9175 745 4287564289
25.869724 1607.6055 743 4287235584
26.906422 1607.2936 741 4287825409
27.981651 1607.1376 740 4288351754
29.053211 1606.9817 739 4288351006
30.121101 1606.8257 738 4288416799
31.236698 1606.8257 738 4288612376
32.299084 1606.6697 737 4289072927
33.3578 1606.5138 736 4288941346
34.355965 1606.2018 734 4289072675
35.405506 1606.0459 733 4289268774
36.390827 1605.7339 731 4289532202
37.49358 1605.7339 731 4289730595
38.596329 1605.7339 731 4290059559
39.633026 1605.578 730 4289928755
40.733944 1605.578 730 4291244614
41.765137 1605.422 729 4290526775
42.79266 1605.2661 728 4290789946
43.889908 1605.2661 728 4290726468
44.987156 1605.2661 728 4291449934
46.084404 1605.2661 728 4290992204
47.181652 1605.2661 728 4290926411
48.2789 1605.2661 728 4290729296
49.376148 1605.2661 728 4291189847
50.388992 1605.1101 727 4290666335
51.484406 1605.1101 727 4290929251
52.579815 1605.1101 727 4290078039
53.675228 1605.1101 727 4293499531
54.770641 1605.1101 727 4291273129
55.866055 1605.1101 727 4293444298
56.961468 1605.1101 727 4293059046
58.154129 1605.2661 728 4294967295
59.251377 1605.2661 728 4294967295
60.449543 1605.422 729 4294967295
61.548622 1605.422 729 4294967295
62.752293 1605.578 730 4294967295
63.959633 1605.7339 731 4294967295
64.954132 1605.578 730 4294967295
66.165138 1605.7339 731 4294967295
67.379814 1605.8899 732 4294967295
68.598167 1606.0459 733 4294967295
69.820183 1606.2018 734 4294967295
71.515594 1606.9817 739 4294967295
72.633026 1606.9817 739 4294967295
