# .PCD v0.7 - Point Cloud Data file format
VERSION 0.7
FIELDS x y z rgb
SIZE 4 4 4 4
TYPE F F F U
COUNT 1 1 1 1
WIDTH 1375
HEIGHT 1
VIEWPOINT 0 0 0 1 0 0 0
POINTS 1375
DATA ascii
55.304588 1621.5248 721 4289248240
56.388992 1621.5248 721 4288786669
57.473396 1621.5248 721 4287141844
58.557796 1621.5248 721 4287526835
59.6422 1621.5248 721 4284237185
60.726604 1621.5248 721 4286125065
61.706421 1621.3395 720 4285335808
62.78899 1621.3395 720 4287168535
63.871559 1621.3395 720 4286775314
64.954132 1621.3395 720 4286382080
66.036697 1621.3395 720 4286185472
67.119263 1621.3395 720 4283826183
68.201836 1621.3395 720 4291060085
69.284401 1621.3395 720 4288000487
70.366974 1621.3395 720 4292474111
71.449539 1621.3395 720 4292214015
72.532112 1621.3395 720 4291490559
73.739449 1621.5248 721 4291490815
74.823853 1621.5248 721 4291622655
75.908257 1621.5248 721 4291621631
77.122932 1621.7101 722 4291490303
78.209175 1621.7101 722 4291687679
79.429359 1621.8954 723 4291621631
80.653214 1622.0807 724 4291621631
81.880737 1622.2661 725 4291687679
82.972481 1622.2661 725 4291621631
84.205505 1622.4514 726 4291687679
85.29908 1622.4514 726 4291884287
86.682571 1622.822 728 4291752959
87.926605 1623.0073 729 4291358719
89.322937 1623.3779 731 4291424511
90.576149 1623.5634 732 4291425023
91.680733 1623.5634 732 4291490815
92.939453 1623.7487 733 4291425023
94.045868 1623.7487 733 4291490815
95.15229 1623.7487 733 4292015871
30.170643 1623.7432 739 4284512397
31.288073 1623.7432 739 4284578204
32.352295 1623.5596 738 4284380826
33.467892 1623.5596 738 4283725221
34.355965 1622.8257 734 4284054186
35.405506 1622.6422 733 4284513701
36.511925 1622.6422 733 4284777130
37.555962 1622.4587 732 4283596717
38.596329 1622.2753 731 4284846784
39.633026 1622.0918 730 4283994316
40.666054 1621.9082 729 4285441763
41.765137 1621.9082 729 4288263934
42.79266 1621.7247 728 4292935167
43.816513 1621.5413 727 4294967295
44.836697 1621.3578 726 4294967295
45.930275 1621.3578 726 4294967295
47.023853 1621.3578 726 4294967295
48.036697 1621.1743 725 4294967295
49.045872 1620.9908 724 4294967295
50.13578 1620.9908 724 4294967295
51.13945 1620.8074 723 4294967295
52.13945 1620.6239 722 4294967295
53.225689 1620.6239 722 4294046706
54.311928 1620.6239 722 4290893823
55.304588 1620.4404 721 4288920054
56.388992 1620.4404 721 4289113056
57.473396 1620.4404 721 4287007680
58.557796 1620.4404 721 4286666879
59.6422 1620.4404 721 4283903573
60.726604 1620.4404 721 4287299601
61.811008 1620.4404 721 4287299601
62.895412 1620.4404 721 4287365143
63.871559 1620.2568 720 4287561755
64.954132 1620.2568 720 4287037490
66.036697 1620.2568 720 4286382120
67.233025 1620.4404 721 4283826176
68.317429 1620.4404 721 4290729557
69.401833 1620.4404 721 4287802086
70.486237 1620.4404 721 4292605183
71.570641 1620.4404 721 4292476671
72.655045 1620.4404 721 4291621631
73.739449 1620.4404 721 4291621631
74.823853 1620.4404 721 4291621631
76.036697 1620.6239 722 4291490303
77.253212 1620.8074 723 4291490303
78.341286 1620.8074 723 4291687167
79.563301 1620.9908 724 4291752959
80.788994 1621.1743 725 4291752959
82.018349 1621.3578 726 4291752959
83.111923 1621.3578 726 4291752959
84.205505 1621.3578 726 4291752959
85.4422 1621.5413 727 4291884287
86.827522 1621.9082 729 4291752959
87.926605 1621.9082 729 4291621631
89.174309 1622.0918 730 4291490303
90.726608 1622.6422 733 4291490303
91.680733 1622.4587 732 4291687423
92.939453 1622.6422 733 4291753471
93.889908 1622.4587 732 4291621887
29.196331 1623.1707 742 4282067785
30.170643 1622.6257 739 4284765298
31.288073 1622.6257 739 4286084988
32.352295 1622.4441 738 4286282623
33.467892 1622.4441 738 4285627569
34.355965 1621.7174 734 4286154169
35.464222 1621.7174 734 4285827253
36.511925 1621.5358 733 4286945735
37.555962 1621.3541 732 4286289840
38.596329 1621.1725 731 4286553011
39.633026 1620.9908 730 4286291929
40.733944 1620.9908 730 4288068340
41.765137 1620.8092 729 4289052671
42.79266 1620.6276 728 4293131519
43.816513 1620.4459 727 4294967295
44.911926 1620.4459 727 4294967295
45.930275 1620.2642 726 4294967295
47.023853 1620.2642 726 4294967295
48.036697 1620.0825 725 4294967295
49.128441 1620.0825 725 4294967295
50.13578 1619.9009 724 4294967295
51.13945 1619.7192 723 4294967295
52.227524 1619.7192 723 4293458431
53.225689 1619.5376 722 4286944944
54.311928 1619.5376 722 4283126229
55.398167 1619.5376 722 4282599885
56.388992 1619.356 721 4284099421
57.473396 1619.356 721 4282323010
58.557796 1619.356 721 4285530112
59.6422 1619.356 721 4285792258
60.726604 1619.356 721 4286709799
61.811008 1619.356 721 4286775336
62.895412 1619.356 721 4287365161
63.979816 1619.356 721 4290325591
65.064217 1619.356 721 4287435616
66.148621 1619.356 721 4284874810
67.233025 1619.356 721 4281925635
68.317429 1619.356 721 4288829805
69.401833 1619.356 721 4287409644
70.486237 1619.356 721 4292344063
71.570641 1619.356 721 4292476671
72.655045 1619.356 721 4291621631
73.86422 1619.5376 722 4291490815
74.950462 1619.5376 722 4291490815
76.036697 1619.5376 722 4291490303
77.253212 1619.7192 723 4291490303
78.473396 1619.9009 724 4291621631
79.563301 1619.9009 724 4291885055
80.788994 1620.0825 725 4291687679
82.15596 1620.4459 727 4291621631
83.251373 1620.4459 727 4291752959
84.346786 1620.4459 727 4291884287
85.58532 1620.6276 728 4291752959
86.827522 1620.8092 729 4291752959
88.073395 1620.9908 730 4291752959
89.471558 1621.3541 732 4291752959
90.726608 1621.5358 733 4291621631
91.680733 1621.3541 732 4291950847
92.939453 1621.5358 733 4291950335
93.889908 1621.3541 732 4291753215
29.196331 1622.0477 742 4282253312
30.220184 1621.6881 740 4284552735
31.339449 1621.6881 740 4283581277
32.405506 1621.5083 739 4285160052
33.467892 1621.3285 738 4283787403
34.583485 1621.3285 738 4284906140
35.464222 1620.6091 734 4284710805
36.511925 1620.4293 733 4285631907
37.618347 1620.4293 733 4284715169
38.660549 1620.2495 732 4285570478
39.699081 1620.0697 731 4286620879
40.733944 1619.8899 730 4288002532
41.765137 1619.7101 729 4287937520
42.86422 1619.7101 729 4291293183
43.889908 1619.5303 728 4291229951
44.911926 1619.3505 727 4293263359
45.930275 1619.1707 726 4294705151
47.023853 1619.1707 726 4294770687
48.036697 1618.9908 725 4294967295
49.128441 1618.9908 725 4294443007
50.13578 1618.811 724 4289069055
51.225689 1618.811 724 4288149503
52.227524 1618.6312 723 4283017455
53.315598 1618.6312 723 4281175507
54.311928 1618.4514 722 4284563336
55.398167 1618.4514 722 4282062945
56.484406 1618.4514 722 4286709810
57.473396 1618.2716 721 4286382124
58.557796 1618.2716 721 4287102976
59.6422 1618.2716 721 4287430656
60.726604 1618.2716 721 4287168560
61.811008 1618.2716 721 4288677447
62.895412 1618.2716 721 4288031377
63.979816 1618.2716 721 4288886685
65.064217 1618.2716 721 4288625785
66.148621 1618.2716 721 4284284982
67.346786 1618.4514 722 4281270272
68.433029 1618.4514 722 4289357927
69.519264 1618.4514 722 4288197375
70.605507 1618.4514 722 4292473855
71.691742 1618.4514 722 4292083199
72.777985 1618.4514 722 4291359487
73.86422 1618.4514 722 4291490815
74.950462 1618.4514 722 4291556607
76.293579 1618.811 724 4291752959
77.383484 1618.811 724 4291752959
78.605507 1618.9908 725 4291490303
79.69725 1618.9908 725 4291819263
80.924774 1619.1707 726 4291491327
82.15596 1619.3505 727 4291294207
83.251373 1619.3505 727 4291687167
84.488075 1619.5303 728 4291950079
85.728439 1619.7101 729 4292146431
86.827522 1619.7101 729 4292014847
88.073395 1619.8899 730 4291949823
89.322937 1620.0697 731 4291949823
90.576149 1620.2495 732 4291425023
91.528442 1620.0697 731 4291819775
92.785324 1620.2495 732 4291819263
93.42202 1619.7101 729 4291819263
29.244038 1621.1028 743 4283039744
30.368807 1621.1028 743 4282777600
31.390825 1620.7468 741 4281794560
32.458717 1620.5688 740 4281663488
33.522934 1620.3909 739 4281794570
34.583485 1620.2129 738 4283175711
35.464222 1619.501 734 4282919458
36.572475 1619.501 734 4283774767
37.618347 1619.323 733 4282988633
38.660549 1619.1449 732 4284633458
39.699081 1618.9669 731 4284439690
40.733944 1618.7889 730 4284900241
41.834862 1618.7889 730 4284178569
42.86422 1618.611 729 4283783811
43.889908 1618.433 728 4282145174
44.987156 1618.433 728 4282276760
46.007339 1618.255 727 4279197354
47.023853 1618.077 726 4278210202
48.117432 1618.077 726 4278209421
49.128441 1617.899 725 4278203767
50.220184 1617.899 725 4278192449
51.225689 1617.7211 724 4278190128
52.227524 1617.5431 723 4278190105
53.315598 1617.5431 723 4279501872
54.311928 1617.3651 722 4284547096
55.398167 1617.3651 722 4284940318
56.484406 1617.3651 722 4286775306
57.570641 1617.3651 722 4286775306
58.557796 1617.1871 721 4287037440
59.6422 1617.1871 721 4287692800
60.829357 1617.3651 722 4287567455
61.811008 1617.1871 721 4292699309
63.001835 1617.3651 722 4290870485
63.979816 1617.1871 721 4289685955
65.174309 1617.3651 722 4287771262
66.260551 1617.3651 722 4283760704
67.346786 1617.3651 722 4278714368
68.433029 1617.3651 722 4289434010
69.519264 1617.3651 722 4288134655
70.605507 1617.3651 722 4292082431
71.691742 1617.3651 722 4292213503
72.777985 1617.3651 722 4291621375
73.86422 1617.3651 722 4291687679
75.077065 1617.5431 723 4291687679
76.293579 1617.7211 724 4291687679
77.383484 1617.7211 724 4291753471
78.605507 1617.899 725 4291753471
79.69725 1617.899 725 4291951103
80.924774 1618.077 726 4291490815
82.293579 1618.433 728 4291490815
83.390823 1618.433 728 4291752959
84.629356 1618.611 729 4292147711
85.728439 1618.611 729 4292146431
86.972481 1618.7889 730 4292014847
88.073395 1618.7889 730 4291883775
89.322937 1618.9669 731 4292015615
90.576149 1619.1449 732 4291950335
91.528442 1618.9669 731 4292016127
92.785324 1619.1449 732 4291949823
29.244038 1619.978 743 4284284929
30.368807 1619.978 743 4284153856
31.442202 1619.8019 742 4284284928
32.511925 1619.6257 741 4284284928
33.57798 1619.4496 740 4284284929
34.640366 1619.2734 739 4284416004
35.640366 1618.9211 737 4284612608
36.572475 1618.3927 734 4284678144
37.618347 1618.2166 733 4285136914
38.660549 1618.0404 732 4285202707
39.699081 1617.8643 731 4285469511
40.733944 1617.6881 730 4285271875
41.834862 1617.6881 730 4285406548
42.93578 1617.6881 730 4284616775
43.963303 1617.512 729 4285008980
44.987156 1617.3358 728 4283891780
46.007339 1617.1597 727 4284153932
47.023853 1616.9835 726 4284088395
48.117432 1616.9835 726 4284612659
49.128441 1616.8074 725 4284547121
50.220184 1616.8074 725 4285530124
51.311928 1616.8074 725 4285857809
52.227524 1616.4551 723 4286709787
53.315598 1616.4551 723 4286971935
54.311928 1616.2789 722 4287430676
55.398167 1616.2789 722 4287561750
56.484406 1616.2789 722 4287692826
57.570641 1616.2789 722 4287496216
58.656879 1616.2789 722 4286906368
59.743118 1616.2789 722 4289731110
60.829357 1616.2789 722 4287903111
61.915596 1616.2789 722 4290929333
63.001835 1616.2789 722 4290351809
64.088074 1616.2789 722 4290022587
65.174309 1616.2789 722 4286205356
66.260551 1616.2789 722 4281599846
67.346786 1616.2789 722 4278452224
68.433029 1616.2789 722 4291211450
69.636696 1616.4551 723 4289517311
70.72477 1616.4551 723 4291820031
71.812843 1616.4551 723 4292082431
72.900917 1616.4551 723 4291687679
73.988991 1616.4551 723 4291884287
75.077065 1616.4551 723 4291884287
76.293579 1616.6312 724 4291687679
77.513763 1616.8074 725 4291753471
78.605507 1616.8074 725 4291753983
79.831192 1616.9835 726 4291753983
81.060547 1617.1597 727 4291031551
82.293579 1617.3358 728 4291360255
83.530273 1617.512 729 4291687679
84.629356 1617.512 729 4291819263
85.871559 1617.6881 730 4291752959
86.972481 1617.6881 730 4291752959
88.073395 1617.6881 730 4291883775
89.471558 1618.0404 732 4292081407
90.576149 1618.0404 732 4292081663
91.528442 1617.8643 731 4292015615
92.631195 1617.8643 731 4292080639
29.387156 1619.3761 746 4284678164
30.418348 1619.0275 744 4284678164
31.493578 1618.8533 743 4284678164
32.565136 1618.679 742 4284874776
33.57798 1618.3303 740 4285005848
34.640366 1618.156 739 4285071386
35.699081 1617.9817 738 4285333530
36.693577 1617.6331 736 4285267992
37.680733 1617.2844 734 4285136896
38.660549 1616.9358 732 4285005824
39.699081 1616.7615 731 4284809216
40.801834 1616.7615 731 4285136896
41.834862 1616.5872 730 4285005834
42.93578 1616.5872 730 4284809224
43.963303 1616.4128 729 4284940288
45.062386 1616.4128 729 4285136896
46.084404 1616.2385 728 4285399040
47.102753 1616.0642 727 4285530112
48.117432 1615.8899 726 4286251011
49.128441 1615.7156 725 4286382085
50.220184 1615.7156 725 4286971933
51.225689 1615.5413 724 4287168544
52.315598 1615.5413 724 4288088609
53.315598 1615.3669 723 4288878381
54.403671 1615.3669 723 4288152103
55.491745 1615.3669 723 4287430685
56.484406 1615.1926 722 4287627315
57.570641 1615.1926 722 4287234093
58.656879 1615.1926 722 4286054401
59.743118 1615.1926 722 4292760936
60.829357 1615.1926 722 4289227691
61.915596 1615.1926 722 4286793350
63.001835 1615.1926 722 4288574846
64.088074 1615.1926 722 4291206823
65.174309 1615.1926 722 4288574685
66.260551 1615.1926 722 4284955814
67.346786 1615.1926 722 4282273410
68.433029 1615.1926 722 4290366205
69.636696 1615.3669 723 4291027711
70.72477 1615.3669 723 4292475135
71.812843 1615.3669 723 4292475391
72.900917 1615.3669 723 4292080639
74.113762 1615.5413 724 4292015615
75.203667 1615.5413 724 4291949567
76.42202 1615.7156 725 4291490815
77.513763 1615.7156 725 4291490815
78.737617 1615.8899 726 4291556863
79.965141 1616.0642 727 4291885567
81.196327 1616.2385 728 4291687679
82.43119 1616.4128 729 4291885055
83.530273 1616.4128 729 4292016127
84.770645 1616.5872 730 4292016127
85.871559 1616.5872 730 4291950335
86.972481 1616.5872 730 4291950335
88.073395 1616.5872 730 4291884287
89.471558 1616.9358 732 4292081919
90.576149 1616.9358 732 4292015615
91.528442 1616.7615 731 4291949823
31.493578 1617.7284 743 4285333524
32.618347 1617.7284 743 4285464598
33.633026 1617.3835 741 4285595671
34.697247 1617.2111 740 4285661208
35.699081 1616.8661 738 4285857819
36.754128 1616.6936 737 4285792282
37.680733 1616.1761 734 4285988870
38.72477 1616.0037 733 4285923333
39.765137 1615.8312 732 4286251008
40.801834 1615.6587 731 4286382080
41.904587 1615.6587 731 4286775306
42.93578 1615.4862 730 4286775306
44.036697 1615.4862 730 4286971915
45.062386 1615.3137 729 4286971915
46.084404 1615.1412 728 4286971915
47.102753 1614.9688 727 4287037452
48.117432 1614.7964 726 4287365143
49.128441 1614.6239 725 4287365143
50.220184 1614.6239 725 4287496212
51.225689 1614.4514 724 4289005867
52.315598 1614.4514 724 4288288080
53.315598 1614.2789 723 4289209182
54.403671 1614.2789 723 4289078114
55.491745 1614.2789 723 4286382137
56.579815 1614.2789 723 4288020480
57.667889 1614.2789 723 4288348160
58.656879 1614.1064 722 4285792313
59.743118 1614.1064 722 4292433822
60.829357 1614.1064 722 4289167812
61.915596 1614.1064 722 4287127973
63.001835 1614.1064 722 4286668707
64.088074 1614.1064 722 4290089944
65.174309 1614.1064 722 4290156515
66.260551 1614.1064 722 4286603694
67.460548 1614.2789 723 4283064738
68.548622 1614.2789 723 4290894079
69.636696 1614.2789 723 4292276479
70.72477 1614.2789 723 4292802815
71.933945 1614.4514 724 4291752703
73.023849 1614.4514 724 4291884287
74.113762 1614.4514 724 4292015615
75.203667 1614.4514 724 4291949567
76.42202 1614.6239 725 4291556863
77.644035 1614.7964 726 4291556863
78.737617 1614.7964 726 4291425023
79.965141 1614.9688 727 4291622655
81.196327 1615.1412 728 4291490815
82.43119 1615.3137 729 4291819775
83.669724 1615.4862 730 4291820031
84.770645 1615.4862 730 4291820031
86.014679 1615.6587 731 4291885311
86.972481 1615.4862 730 4291819519
88.366974 1615.8312 732 4291556863
89.620186 1616.0037 733 4291819775
90.576149 1615.8312 732 4292081663
91.528442 1615.6587 731 4292015615
31.85321 1617.7982 750 4285005831
32.671558 1616.7743 744 4285136905
33.743118 1616.6036 743 4285530130
34.811008 1616.433 742 4285661204
35.757797 1615.9211 739 4285857816
36.814678 1615.7505 738 4285988889
37.805504 1615.4092 736 4286185481
38.78899 1615.0679 734 4286119944
39.831192 1614.8972 733 4286251008
40.869724 1614.7266 732 4286447616
41.974312 1614.7266 732 4286906393
43.007339 1614.5559 731 4286906393
44.036697 1614.3854 730 4287102994
45.137615 1614.3854 730 4287234068
46.161469 1614.2147 729 4286971932
47.181652 1614.0441 728 4287103005
48.198166 1613.8734 727 4287168541
49.21101 1613.7028 726 4287234078
50.220184 1613.5321 725 4287234068
51.311928 1613.5321 725 4288414246
52.315598 1613.3615 724 4288819307
53.405506 1613.3615 724 4291648406
54.403671 1613.1908 723 4289150847
55.58532 1613.3615 724 4284612667
56.675228 1613.3615 724 4286185497
57.765137 1613.3615 724 4290655070
58.755962 1613.1908 723 4288106909
59.844036 1613.1908 723 4290278335
60.93211 1613.1908 723 4289036742
61.915596 1613.0201 722 4288839363
63.001835 1613.0201 722 4289960406
64.088074 1613.0201 722 4290947301
65.284401 1613.1908 723 4289631457
66.372475 1613.1908 723 4286407600
67.460548 1613.1908 723 4283724481
68.548622 1613.1908 723 4291290879
69.754128 1613.3615 724 4293131775
70.84404 1613.3615 724 4292934399
71.933945 1613.3615 724 4291884031
73.023849 1613.3615 724 4291884031
74.238533 1613.5321 725 4292015615
75.203667 1613.3615 724 4291949567
76.42202 1613.5321 725 4291753471
77.644035 1613.7028 726 4291753471
78.737617 1613.7028 726 4291884543
79.965141 1613.8734 727 4291884543
81.332108 1614.2147 729 4291490815
82.43119 1614.2147 729 4291885567
83.530273 1614.2147 729 4291753983
84.770645 1614.3854 730 4291622655
85.871559 1614.3854 730 4291753471
86.972481 1614.3854 730 4291819519
88.073395 1614.3854 730 4292016127
89.620186 1614.8972 733 4292081919
90.726608 1614.8972 733 4292081663
91.833031 1614.8972 733 4292081663
29.673395 1616.9982 752 4284284991
30.765137 1616.8293 751 4284350528
31.85321 1616.6605 750 4284874770
32.72477 1615.8165 745 4285005844
33.798164 1615.6477 744 4285726727
34.811008 1615.3101 742 4285792265
35.816513 1614.9725 740 4285988870
36.875229 1614.8037 739 4286119944
37.930275 1614.6349 738 4286251020
38.917431 1614.2972 736 4286185483
39.897247 1613.9596 734 4286382080
40.937614 1613.7908 733 4286447616
42.044037 1613.7908 733 4286971913
43.078899 1613.6221 732 4287037450
44.110092 1613.4532 731 4287102994
45.137615 1613.2844 730 4287234068
46.238533 1613.2844 730 4286971926
47.260551 1613.1156 729 4287102999
48.2789 1612.9468 728 4287234074
49.21101 1612.6091 726 4287168537
50.304588 1612.6091 726 4287037458
51.311928 1612.4404 725 4291638616
52.403671 1612.4404 725 4289154972
53.405506 1612.2716 724 4290339503
54.495415 1612.2716 724 4289748379
55.58532 1612.2716 724 4285406298
56.675228 1612.2716 724 4286911585
57.765137 1612.2716 724 4289938063
58.855045 1612.2716 724 4289295524
59.944954 1612.2716 724 4290085039
60.93211 1612.1028 723 4289037521
62.020184 1612.1028 723 4289169107
63.108257 1612.1028 723 4290750703
64.196327 1612.1028 723 4289961188
65.284401 1612.1028 723 4288909753
66.372475 1612.1028 723 4287264929
67.460548 1612.1028 723 4284383697
68.664223 1612.2716 724 4291160319
69.754128 1612.2716 724 4292803839
70.84404 1612.2716 724 4292474879
71.933945 1612.2716 724 4291622655
73.14679 1612.4404 725 4291622655
74.238533 1612.4404 725 4291949823
75.330276 1612.4404 725 4291949823
76.42202 1612.4404 725 4292081663
77.644035 1612.6091 726 4292081663
78.737617 1612.6091 726 4291753471
80.233025 1613.1156 729 4291687679
81.332108 1613.1156 729 4291228159
82.56881 1613.2844 730 4291688703
83.669724 1613.2844 730 4291885311
84.770645 1613.2844 730 4291885311
85.871559 1613.2844 730 4291885311
87.117432 1613.4532 731 4291885311
88.220184 1613.4532 731 4292212991
89.768806 1613.9596 734 4292212991
90.726608 1613.7908 733 4292212479
29.673395 1615.8569 752 4288313757
30.765137 1615.6899 751 4285945209
31.85321 1615.5229 750 4285405512
32.884403 1615.189 748 4282646558
33.85321 1614.6881 745 4284284928
34.867889 1614.3541 743 4284612608
35.875229 1614.0201 741 4285267968
36.93578 1613.8533 740 4285333504
37.930275 1613.5193 738 4285726720
38.981651 1613.3523 737 4285988864
40.029358 1613.1853 736 4286382090
41.005505 1612.8513 734 4286447627
42.044037 1612.6844 733 4286840845
43.150459 1612.6844 733 4286840845
44.183487 1612.5175 732 4287037458
45.212845 1612.3505 731 4287102996
46.238533 1612.1835 730 4286971924
47.339451 1612.1835 730 4287168534
48.359634 1612.0165 729 4287168544
49.376148 1611.8495 728 4286971934
50.304588 1611.5156 726 4285792280
51.398167 1611.5156 726 4293025670
52.403671 1611.3486 725 4290874821
53.405506 1611.1816 724 4291532495
54.495415 1611.1816 724 4291074242
55.678898 1611.3486 725 4290350776
56.675228 1611.1816 724 4290485205
57.765137 1611.1816 724 4291011550
58.855045 1611.1816 724 4290617807
59.944954 1611.1816 724 4291012565
61.034863 1611.1816 724 4289498588
62.020184 1611.0146 723 4289367002
63.108257 1611.0146 723 4288708836
64.196327 1611.0146 723 4286669252
65.284401 1611.0146 723 4285684090
66.484406 1611.1816 724 4287657623
67.57431 1611.1816 724 4285305566
68.664223 1611.1816 724 4291226623
69.754128 1611.1816 724 4293263359
70.84404 1611.1816 724 4292606207
72.055046 1611.3486 725 4291950335
73.14679 1611.3486 725 4291950335
74.238533 1611.3486 725 4291949823
75.330276 1611.3486 725 4291884031
76.550461 1611.5156 726 4292081407
77.644035 1611.5156 726 4292212735
78.869728 1611.6826 727 4291753215
80.233025 1612.0165 729 4291753215
81.332108 1612.0165 729 4291753471
82.56881 1612.1835 730 4291819263
83.669724 1612.1835 730 4291885311
84.770645 1612.1835 730 4292148223
86.014679 1612.3505 731 4292344831
87.552292 1612.8513 734 4292410623
88.660553 1612.8513 734 4292081663
89.768806 1612.8513 734 4292081663
31.85321 1614.3854 750 4285679209
32.884403 1614.0551 748 4281731373
34.018349 1614.0551 748 4285005866
34.867889 1613.2294 743 4285005866
35.933945 1613.0642 742 4285202432
36.93578 1612.7339 740 4286316551
37.992661 1612.5688 739 4286973046
39.045872 1612.4037 738 4285792356
40.095413 1612.2385 737 4285988864
41.141285 1612.0734 736 4286382082
42.113762 1611.7432 734 4286906378
43.150459 1611.578 733 4287102989
44.183487 1611.4128 732 4287102999
45.212845 1611.2477 731 4286971926
46.315598 1611.2477 731 4287234056
47.339451 1611.0825 730 4287234056
48.359634 1610.9175 729 4286971932
49.458717 1610.9175 729 4287103005
50.473396 1610.7523 728 4284350534
51.484406 1610.5872 727 4291914937
52.491745 1610.422 726 4289565913
53.495415 1610.2568 725 4290815981
54.587154 1610.2568 725 4290228193
55.678898 1610.2568 725 4289833435
56.770641 1610.2568 725 4289702113
57.862385 1610.2568 725 4289438941
58.954128 1610.2568 725 4289110469
60.045872 1610.2568 725 4289373384
61.034863 1610.0918 724 4289302994
62.124771 1610.0918 724 4288250306
63.21468 1610.0918 724 4288704681
64.196327 1609.9266 723 4286928270
65.284401 1609.9266 723 4285681519
66.484406 1610.0918 724 4288181654
67.57431 1610.0918 724 4286488561
68.664223 1610.0918 724 4291883263
69.754128 1610.0918 724 4293263359
70.963303 1610.2568 725 4292474623
72.055046 1610.2568 725 4292015615
73.14679 1610.2568 725 4292081663
74.363304 1610.422 726 4292344063
75.456879 1610.422 726 4292278271
76.678902 1610.5872 727 4292081663
77.774315 1610.5872 727 4292212991
78.869728 1610.5872 727 4291687167
80.099083 1610.7523 728 4291884287
81.332108 1610.9175 729 4292344575
82.56881 1611.0825 730 4292081663
83.809174 1611.2477 731 4291031551
84.770645 1611.0825 730 4291492095
86.444038 1611.7432 734 4291819263
87.842201 1612.0734 736 4292082431
89.100914 1612.2385 737 4292081663
34.811008 1611.9413 742 4286930330
35.875229 1611.778 741 4288110200
36.93578 1611.6146 740 4289886611
37.992661 1611.4514 739 4290476200
39.110092 1611.4514 739 4283567935
40.161469 1611.2881 738 4285595648
41.209175 1611.1248 737 4285988864
42.253212 1610.9614 736 4286775296
43.222019 1610.6349 734 4286971908
44.256882 1610.4716 733 4287168544
45.288074 1610.3082 732 4286971934
46.392662 1610.3082 732 4287037443
47.41835 1610.1449 731 4287102980
48.440369 1609.9817 730 4286644240
49.541283 1609.9817 730 4287102999
50.557796 1609.8184 729 4286260349
51.656879 1609.8184 729 4292970978
52.667889 1609.655 728 4291143147
53.58532 1609.3285 726 4292130042
54.678898 1609.3285 726 4291079653
55.772476 1609.3285 726 4290816737
56.866055 1609.3285 726 4290685412
57.959633 1609.3285 726 4288843208
59.053211 1609.3285 726 4288578223
60.14679 1609.3285 726 4289104568
61.240368 1609.3285 726 4288969134
62.333946 1609.3285 726 4284627053
63.427525 1609.3285 726 4285475945
64.412842 1609.1652 725 4287383942
65.394493 1609.0018 724 4285290384
66.484406 1609.0018 724 4288448448
67.688072 1609.1652 725 4286886143
68.664223 1609.0018 724 4291754495
69.871559 1609.1652 725 4293001215
70.963303 1609.1652 725 4292080383
72.055046 1609.1652 725 4291884031
73.269722 1609.3285 726 4292015615
74.488075 1609.4917 727 4292081663
75.710091 1609.655 728 4292081663
76.807343 1609.655 728 4292081663
77.904587 1609.655 728 4292212991
79.133942 1609.8184 729 4292278783
80.233025 1609.8184 729 4292081663
81.467888 1609.9817 730 4292082175
82.56881 1609.9817 730 4292082175
84.227524 1610.6349 734 4291819519
85.335777 1610.6349 734 4291885311
86.730278 1610.9614 736 4291820031
88.132111 1611.2881 738 4292017407
89.247704 1611.2881 738 4292212991
34.811008 1610.8184 742 4287861969
35.875229 1610.6569 741 4286609838
36.93578 1610.4954 740 4287530940
38.055046 1610.4954 740 4289820612
39.110092 1610.334 739 4282583381
40.227524 1610.334 739 4285267968
41.277065 1610.1725 738 4285857792
42.322937 1610.011 737 4286709763
43.365139 1609.8495 736 4286906374
44.330276 1609.5266 734 4286906394
45.363304 1609.3651 733 4286840857
46.392662 1609.2036 732 4287234064
47.49725 1609.2036 732 4287102990
48.521099 1609.0422 731 4286447616
49.623852 1609.0422 731 4287168520
50.6422 1608.8807 730 4286924690
51.656879 1608.7192 729 4291595993
52.667889 1608.5579 728 4290815465
53.675228 1608.3964 727 4290354914
54.770641 1608.3964 727 4290223816
55.866055 1608.3964 727 4290618318
56.961468 1608.3964 727 4290946536
58.056881 1608.3964 727 4287985851
59.152294 1608.3964 727 4287321981
60.247707 1608.3964 727 4288045704
61.343121 1608.3964 727 4288437650
62.438534 1608.3964 727 4286069102
63.533943 1608.3964 727 4286198369
64.521103 1608.2349 726 4287777657
65.504585 1608.0734 725 4284833179
66.70826 1608.2349 726 4288781015
67.801834 1608.2349 726 4287414271
68.895416 1608.2349 726 4291493375
69.988991 1608.2349 726 4292935679
71.082565 1608.2349 726 4292080895
72.176147 1608.2349 726 4291687167
73.515594 1608.5579 728 4291950079
74.612846 1608.5579 728 4291884543
75.8367 1608.7192 729 4292016127
76.935783 1608.7192 729 4292015615
78.034859 1608.7192 729 4292212735
79.266052 1608.8807 730 4292278783
80.366974 1608.8807 730 4292212991
81.603668 1609.0422 731 4292082175
82.706421 1609.0422 731 4292082175
84.088074 1609.3651 733 4291820031
85.618347 1609.8495 736 4291820031
86.730278 1609.8495 736 4291492351
87.842201 1609.8495 736 4291755519
34.811008 1609.6954 742 4289173984
35.933945 1609.6954 742 4289173471
37.056881 1609.6954 742 4289436642
38.117432 1609.5358 741 4289690031
39.174313 1609.3761 740 4282255423
40.227524 1609.2166 739 4285530112
41.344955 1609.2166 739 4286185472
42.392662 1609.0569 738 4286513167
43.365139 1608.7377 736 4286578704
44.330276 1608.4183 734 4287037456
45.438534 1608.4183 734 4287037456
46.469727 1608.2587 733 4287102994
47.576145 1608.2587 733 4287234068
48.601833 1608.0991 732 4286578699
49.623852 1607.9395 731 4288745260
50.726604 1607.9395 731 4288172704
51.743118 1607.7798 730 4292120541
52.755962 1607.6202 729 4290877631
53.765137 1607.4606 728 4286798721
54.862385 1607.4606 728 4286926987
55.959633 1607.4606 728 4289361328
57.056881 1607.4606 728 4288705472
58.056881 1607.3009 727 4286008215
59.251377 1607.4606 728 4284095576
60.348625 1607.4606 728 4284753505
61.445873 1607.4606 728 4286265700
62.543118 1607.4606 728 4286594664
63.640366 1607.4606 728 4286070131
64.629356 1607.3009 727 4287254405
65.614677 1607.1412 726 4284637349
66.820183 1607.3009 727 4289506031
67.915596 1607.3009 727 4288596479
69.126602 1607.4606 728 4292017663
70.223854 1607.4606 728 4292607999
71.321098 1607.4606 728 4292016383
72.41835 1607.4606 728 4291753471
73.638535 1607.6202 729 4292082431
74.737617 1607.6202 729 4292081663
75.963303 1607.7798 730 4292015615
77.064217 1607.7798 730 4292016127
78.165138 1607.7798 730 4291950335
79.398163 1607.9395 731 4291884543
80.634865 1608.0991 732 4291950335
81.739449 1608.0991 732 4291885311
82.84404 1608.0991 732 4292082431
84.506424 1608.7377 736 4292082687
85.759636 1608.8972 737 4292345855
86.873398 1608.8972 737 4292147967
87.98716 1608.8972 737 4292147967
33.908257 1609.2036 746 4288586451
34.867889 1608.7302 743 4288125900
35.992661 1608.7302 743 4288779993
37.117432 1608.7302 743 4288779993
38.179817 1608.5725 742 4289297585
39.238533 1608.4147 741 4281928770
40.293579 1608.2568 740 4285923328
41.344955 1608.0991 739 4286513152
42.392662 1607.9413 738 4286578706
43.436699 1607.7834 737 4286709780
44.477066 1607.6257 736 4286906394
45.438534 1607.3101 734 4286906394
46.546787 1607.3101 734 4287234068
47.576145 1607.1523 733 4287365142
48.682568 1607.1523 733 4286709793
49.706421 1606.9945 732 4288152887
50.811008 1606.9945 732 4288564859
51.829357 1606.8367 731 4291722923
52.844036 1606.679 730 4290218687
53.855045 1606.5211 729 4285810557
54.954128 1606.5211 729 4287180628
56.053211 1606.5211 729 4288233316
57.152294 1606.5211 729 4287120784
58.251377 1606.5211 729 4286660233
59.35046 1606.5211 729 4284624720
60.449543 1606.5211 729 4284690770
61.548622 1606.5211 729 4285546088
62.647705 1606.5211 729 4285809260
63.746788 1606.5211 729 4285415785
64.845871 1606.5211 729 4286534266
65.834862 1606.3633 728 4284964776
67.044037 1606.5211 729 4290360059
68.029358 1606.3633 728 4289910271
69.242203 1606.5211 729 4292344575
70.341286 1606.5211 729 4292411391
71.440369 1606.5211 729 4291819519
72.539452 1606.5211 729 4291359999
73.761467 1606.679 730 4291688959
74.862389 1606.679 730 4292081663
75.963303 1606.679 730 4292212991
77.064217 1606.679 730 4292278783
78.29541 1606.8367 731 4292081663
79.662384 1607.1523 733 4291162367
80.768806 1607.1523 733 4291688703
82.011009 1607.3101 734 4292081663
83.394493 1607.6257 736 4292212991
84.645874 1607.7834 737 4292278783
86.042198 1608.0991 739 4292344575
87.15963 1608.0991 739 4291753471
89.14679 1609.0459 745 4292082431
90.27523 1609.0459 745 4291557375
36.051376 1607.7615 744 4287986362
37.177982 1607.7615 744 4287525811
38.242203 1607.6055 743 4288965005
39.366974 1607.6055 743 4282583340
40.359634 1607.2936 741 4285923328
41.412846 1607.1376 740 4286513152
42.462387 1606.9817 739 4286709786
43.508255 1606.8257 738 4286709786
44.550457 1606.6697 737 4286840875
45.588989 1606.5138 736 4286840875
46.546787 1606.2018 734 4286971940
47.655045 1606.2018 734 4287168550
48.682568 1606.0459 733 4286971948
49.78899 1606.0459 733 4286644263
50.895412 1606.0459 733 4287048192
51.915596 1605.8899 732 4288956171
52.93211 1605.7339 731 4286986116
53.944954 1605.578 730 4283894101
55.045872 1605.578 730 4284350506
56.14679 1605.578 730 4284416043
57.152294 1605.422 729 4284876879
58.251377 1605.422 729 4286653289
59.35046 1605.422 729 4286003041
60.449543 1605.422 729 4286397799
61.651375 1605.578 730 4286334836
62.752293 1605.578 730 4286663801
63.85321 1605.578 730 4286268528
64.845871 1605.422 729 4287650181
66.055046 1605.578 730 4284573614
67.15596 1605.578 730 4290166015
68.256882 1605.578 730 4290173951
69.357796 1605.578 730 4292344831
70.458717 1605.578 730 4292673535
71.559631 1605.578 730 4292278783
72.781654 1605.7339 731 4292016127
74.007339 1605.8899 732 4292016127
74.98716 1605.7339 731 4292016127
76.089905 1605.7339 731 4292213759
77.321098 1605.8899 732 4292344575
78.555962 1606.0459 733 4292278783
79.794495 1606.2018 734 4291753215
80.902756 1606.2018 734 4292016127
82.41835 1606.6697 737 4292081663
83.807343 1606.9817 739 4292015615
84.924774 1606.9817 739 4292212991
86.183487 1607.1376 740 4292081663
87.30275 1607.1376 740 4291950335
89.14679 1607.9175 745 4292607999
90.27523 1607.9175 745 4292541439
91.552292 1608.0734 746 4292278527
35.209175 1607.4055 749 4285216089
36.168808 1606.9431 746 4287057292
37.299084 1606.9431 746 4286991498
38.304588 1606.6349 744 4287646335
39.431194 1606.6349 744 4283369790
40.42569 1606.3267 742 4286316575
41.480736 1606.1725 741 4286840872
42.532108 1606.0183 740 4286775340
43.579815 1605.8643 739 4286644266
44.697247 1605.8643 739 4286840889
45.739449 1605.7101 738 4286840889
46.700916 1605.4019 736 4286906414
47.655045 1605.0936 734 4286971951
48.682568 1604.9395 733 4287037495
49.78899 1604.9395 733 4286775348
50.895412 1604.9395 733 4285661190
51.915596 1604.7853 732 4287105564
52.93211 1604.6312 731 4286324577
53.944954 1604.4771 730 4284811337
55.045872 1604.4771 730 4284678195
56.053211 1604.323 729 4285270332
57.152294 1604.323 729 4285143110
58.251377 1604.323 729 4286787678
59.35046 1604.323 729 4286528617
60.550457 1604.4771 730 4286857839
61.651375 1604.4771 730 4286793329
62.752293 1604.4771 730 4287385209
63.85321 1604.4771 730 4287124098
64.954132 1604.4771 730 4287848077
66.055046 1604.4771 730 4285362103
67.267891 1604.6312 731 4291020287
68.370644 1604.6312 731 4290897407
69.473396 1604.6312 731 4292410623
70.576149 1604.6312 731 4292738815
71.678902 1604.6312 731 4292475647
72.902756 1604.7853 732 4292278783
74.007339 1604.7853 732 4292212991
75.111923 1604.7853 732 4291753471
76.343117 1604.9395 733 4291951103
77.449539 1604.9395 733 4292082175
78.686241 1605.0936 734 4292147967
80.058716 1605.4019 736 4291753471
81.170639 1605.4019 736 4291885055
82.41835 1605.5559 737 4292081663
83.944954 1606.0183 740 4292081663
85.203667 1606.1725 741 4292212991
86.607338 1606.4807 743 4292212991
87.875229 1606.6349 744 4291753983
89.29174 1606.9431 746 4292214527
90.27523 1606.7889 745 4292607231
91.552292 1606.9431 746 4292541439
36.28624 1606.1174 748 4281925681
37.420185 1606.1174 748 4282253366
38.429359 1605.8129 746 4283629629
39.495415 1605.6605 745 4283629629
40.491745 1605.356 743 4284809265
41.616512 1605.356 743 4286189382
42.671558 1605.2036 742 4285205302
43.722935 1605.0514 741 4285271095
44.770641 1604.899 740 4285598793
45.739449 1604.5945 738 4285533000
46.777981 1604.4421 737 4285923647
47.812843 1604.2899 736 4286186563
48.763302 1603.9854 734 4286188602
49.871559 1603.9854 734 4286254395
50.979816 1603.9854 734 4285205832
52.001835 1603.833 733 4285469261
53.020184 1603.6808 732 4285407563
54.034863 1603.5284 731 4285868114
55.137615 1603.5284 731 4286264401
56.14679 1603.3761 730 4287053917
57.247707 1603.3761 730 4286660696
58.348625 1603.3761 730 4286463061
59.449543 1603.3761 730 4286527091
60.550457 1603.3761 730 4286987642
61.651375 1603.3761 730 4286137191
62.85688 1603.5284 731 4288571533
63.959633 1603.5284 731 4288644003
65.062386 1603.5284 731 4288972968
66.165138 1603.5284 731 4285828817
67.379814 1603.6808 732 4290763263
68.484406 1603.6808 732 4291686655
69.473396 1603.5284 731 4292541951
70.693581 1603.6808 732 4292476927
71.798164 1603.6808 732 4291950591
73.023849 1603.833 733 4291951103
74.130272 1603.833 733 4292214271
75.236694 1603.833 733 4292081663
76.469727 1603.9854 734 4292081663
77.834862 1604.2899 736 4292212991
79.077065 1604.4421 737 4292476159
80.190826 1604.4421 737 4292213759
81.43853 1604.5945 738 4292345087
82.825691 1604.899 740 4292082175
84.082565 1605.0514 741 4292213759
85.343117 1605.2036 742 4292541439
86.748627 1605.5083 744 4292607231
87.875229 1605.5083 744 4292016127
89.29174 1605.8129 746 4292345087
90.42202 1605.8129 746 4292541439
91.849541 1606.1174 748 4292344319
36.344955 1605.1339 749 4282321970
37.420185 1604.9835 748 4282321970
38.429359 1604.6826 746 4282974266
39.559631 1604.6826 746 4283237439
40.623852 1604.5321 745 4283239987
41.616512 1604.2312 743 4284029503
42.741283 1604.2312 743 4283375421
43.794495 1604.0807 742 4283309628
44.844036 1603.9303 741 4283702596
45.814678 1603.6294 739 4283768645
46.93211 1603.6294 739 4284161852
47.970642 1603.4789 738 4283964730
49.086239 1603.4789 738 4284488517
50.036697 1603.178 736 4284488517
50.979816 1602.8771 734 4284161351
52.088074 1602.8771 734 4284293193
53.108257 1602.7266 733 4285277256
54.124771 1602.5762 732 4286132565
55.229359 1602.5762 732 4286330209
56.240368 1602.4257 731 4287119725
57.343121 1602.4257 731 4286727254
58.348625 1602.2753 730 4286266703
59.548622 1602.4257 731 4286459749
60.752293 1602.5762 732 4287775609
61.754128 1602.4257 731 4286139783
62.961468 1602.5762 732 4288968882
64.066055 1602.5762 732 4287990466
65.170639 1602.5762 732 4287727038
66.27523 1602.5762 732 4284584144
67.491745 1602.7266 733 4290044927
68.598167 1602.7266 733 4291950079
69.588989 1602.5762 732 4292476415
70.811012 1602.7266 733 4292148479
71.917435 1602.7266 733 4291753727
73.144951 1602.8771 734 4291557375
74.253212 1602.8771 734 4291754751
75.611008 1603.178 736 4292278271
76.722939 1603.178 736 4292344063
78.091743 1603.4789 738 4292212991
79.207336 1603.4789 738 4292410623
80.455048 1603.6294 739 4292147967
81.706421 1603.7798 740 4291950335
82.961472 1603.9303 741 4291491071
84.220184 1604.0807 742 4291819775
85.482567 1604.2312 743 4291885311
86.748627 1604.3816 744 4291885311
87.875229 1604.3816 744 4291753215
89.58165 1604.9835 748 4292410879
90.715599 1604.9835 748 4292344831
91.849541 1604.9835 748 4292279039
28.007339 1606.5248 766 4282653508
35.379818 1604.4441 752 4283113269
36.462387 1604.2954 751 4283112767
37.480736 1603.9982 749 4283178560
38.554127 1603.8495 748 4283703102
39.559631 1603.5522 746 4283571517
40.623852 1603.4037 745 4283833151
41.684402 1603.255 744 4284030786
42.811008 1603.255 744 4283900997
43.866055 1603.1064 743 4283966790
44.917431 1602.9578 742 4283967040
45.965137 1602.8092 741 4284098626
47.086239 1602.8092 741 4284229444
48.128441 1602.6605 740 4284163651
49.166973 1602.512 739 4284751947
50.201836 1602.3633 738 4285344084
51.148624 1602.066 736 4285606989
52.260551 1602.066 736 4285738574
53.196331 1601.7688 734 4286001749
54.304588 1601.7688 734 4286198871
55.321102 1601.6202 733 4286198371
56.521099 1601.7688 734 4287185266
57.533943 1601.6202 733 4286858322
58.640366 1601.6202 733 4286266442
59.746788 1601.6202 733 4286002791
60.85321 1601.6202 733 4288963733
61.959633 1601.6202 733 4288512445
63.066055 1601.6202 733 4289565389
64.172478 1601.6202 733 4288713683
65.2789 1601.6202 733 4287726788
66.27523 1601.4716 732 4284911823
67.491745 1601.6202 733 4290635775
68.484406 1601.4716 732 4293001215
69.70459 1601.6202 733 4292804095
70.811012 1601.6202 733 4292214527
72.036697 1601.7688 734 4292148479
73.387154 1602.066 736 4292345087
74.499084 1602.066 736 4292147967
75.735779 1602.2147 737 4292082175
76.976151 1602.3633 738 4292410879
78.220184 1602.512 739 4292476415
79.337616 1602.512 739 4292476415
80.587158 1602.6605 740 4292082175
81.84037 1602.8092 741 4291753215
83.097244 1602.9578 742 4292016127
84.357796 1603.1064 743 4292476671
85.482567 1603.1064 743 4292082175
86.889908 1603.4037 745 4292016127
88.018349 1603.4037 745 4292212991
89.58165 1603.8495 748 4292870143
90.715599 1603.8495 748 4292344831
28.007339 1605.3578 766 4282849608
29.128441 1605.2111 765 4283244366
30.245872 1605.0642 764 4283310141
31.26055 1604.6239 761 4283178812
32.41835 1604.6239 761 4283374901
33.522934 1604.4771 760 4283440694
34.678898 1604.4771 760 4283309628
35.322937 1603.156 751 4283309628
36.462387 1603.156 751 4283375169
37.601833 1603.156 751 4283375169
38.554127 1602.7156 748 4283965506
39.688072 1602.7156 748 4284031300
40.689907 1602.422 746 4284031300
41.752293 1602.2753 745 4284228679
42.811008 1602.1284 744 4284425796
43.866055 1601.9817 743 4284557383
44.990826 1601.9817 743 4284427078
46.040367 1601.8348 742 4284427078
47.163303 1601.8348 742 4284425796
48.20734 1601.6881 741 4284293954
49.247707 1601.5413 740 4284817992
50.284405 1601.3945 739 4285541459
51.317432 1601.2477 738 4286065227
52.433029 1601.2477 738 4286262606
53.460552 1601.101 737 4286525522
54.664219 1601.2477 738 4286459729
55.779816 1601.2477 738 4286196572
56.801834 1601.101 737 4287578225
57.915596 1601.101 737 4287055732
58.93211 1600.9541 736 4287384696
60.14312 1601.101 737 4286533774
61.155964 1600.9541 736 4288639406
62.267891 1600.9541 736 4288515008
63.170643 1600.6605 734 4288778181
64.172478 1600.5138 733 4287990729
65.2789 1600.5138 733 4287464385
66.385323 1600.5138 733 4285634267
67.491745 1600.5138 733 4291226623
68.598167 1600.5138 733 4292804607
69.70459 1600.5138 733 4292673023
70.928444 1600.6605 734 4292280319
72.27523 1600.9541 736 4292214527
73.508255 1601.101 737 4292476415
74.622017 1601.101 737 4292410623
75.86055 1601.2477 738 4291492351
77.102753 1601.3945 739 4291821311
78.220184 1601.3945 739 4292083455
79.467888 1601.5413 740 4292214783
80.719269 1601.6881 741 4292147967
81.974312 1601.8348 742 4292345087
83.233025 1601.9817 743 4292476927
84.495415 1602.1284 744 4292411135
85.761467 1602.2753 745 4291753471
87.031189 1602.422 746 4291951103
88.447708 1602.7156 748 4292344319
89.726608 1602.8624 749 4292475647
90.862389 1602.8624 749 4292344831
26.882568 1604.3358 767 4282726481
28.051376 1604.3358 767 4282654546
29.174313 1604.1908 766 4282062153
30.245872 1603.9009 764 4282782000
31.409174 1603.9009 764 4282847793
32.41835 1603.4661 761 4283174444
33.522934 1603.321 760 4283503409
34.678898 1603.321 760 4283243070
35.379818 1602.1615 752 4283374399
36.521099 1602.1615 752 4283374151
37.662384 1602.1615 752 4283374151
38.616512 1601.7266 749 4283571267
39.688072 1601.5817 748 4283768645
40.822018 1601.5817 748 4283898698
41.820183 1601.2917 746 4284622422
42.880733 1601.1467 745 4284752708
43.937614 1601.0018 744 4284752708
44.990826 1600.8569 743 4284948295
46.040367 1600.7119 742 4284948295
47.163303 1600.7119 742 4284881466
48.20734 1600.567 741 4284947260
49.328442 1600.567 741 4285208651
50.366974 1600.422 740 4286063960
51.401836 1600.2771 739 4286325834
52.433029 1600.1321 738 4286457421
53.548622 1600.1321 738 4286129734
54.754128 1600.2771 739 4287248216
55.779816 1600.1321 738 4286597992
56.895412 1600.1321 738 4288045438
57.915596 1599.9872 737 4288839835
58.93211 1599.8422 736 4290024110
60.14312 1599.9872 737 4289499853
61.256882 1599.9872 737 4289565902
62.370644 1599.9872 737 4288712631
63.379818 1599.8422 736 4288646582
64.2789 1599.5522 734 4287727040
65.387154 1599.5522 734 4287332282
66.495415 1599.5522 734 4286094566
67.603668 1599.5522 734 4291686911
68.711929 1599.5522 734 4293263359
69.820183 1599.5522 734 4292935167
71.1633 1599.8422 736 4292541695
72.394493 1599.9872 737 4292541695
73.629356 1600.1321 738 4292541695
74.867889 1600.2771 739 4292541695
76.110092 1600.422 740 4292148479
77.229355 1600.422 740 4292411391
78.477066 1600.567 741 4292280319
79.728439 1600.7119 742 4292214527
80.98349 1600.8569 743 4292345087
82.108253 1600.8569 743 4292476927
83.368805 1601.0018 744 4292476415
84.633026 1601.1467 745 4292410623
85.900917 1601.2917 746 4292212991
87.031189 1601.2917 746 4292278783
88.447708 1601.5817 748 4292212991
89.871559 1601.8716 750 4292212991
91.009171 1601.8716 750 4292212991
27.051376 1603.7395 771 4283387757
28.051376 1603.167 767 4283122020
29.220184 1603.167 767 4281740367
30.38899 1603.167 767 4283308122
31.409174 1602.7377 764 4283110743
32.366974 1602.1652 760 4283108683
33.522934 1602.1652 760 4283371598
34.678898 1602.1652 760 4283437895
35.550457 1601.4496 755 4283635275
36.638531 1601.3064 754 4283439944
37.662384 1601.0201 752 4283242566
38.741283 1600.8771 751 4284031302
39.752293 1600.5908 749 4283702337
40.822018 1600.4478 748 4283700800
41.820183 1600.1615 746 4284753744
42.880733 1600.0183 745 4285081160
44.009174 1600.0183 745 4284949317
45.06422 1599.8752 744 4285209668
46.115597 1599.7321 743 4285143619
47.240368 1599.7321 743 4285601092
48.28624 1599.589 742 4286193229
49.409176 1599.589 742 4286194512
50.449543 1599.4459 741 4286523477
51.48624 1599.3027 740 4286851665
52.605503 1599.3027 740 4287246423
53.636696 1599.1597 739 4286722403
54.844036 1599.3027 740 4287643505
55.871559 1599.1597 739 4286929285
56.988991 1599.1597 739 4287850387
58.011009 1599.0165 738 4287594929
59.126606 1599.0165 738 4288516031
60.242203 1599.0165 738 4288385222
61.3578 1599.0165 738 4287858878
62.473396 1599.0165 738 4288250556
63.484406 1598.8734 737 4288711107
64.598167 1598.8734 737 4288054458
65.603668 1598.7302 736 4287791286
66.715599 1598.7302 736 4286881770
67.827522 1598.7302 736 4292474111
68.939453 1598.7302 736 4293132287
70.166969 1598.8734 737 4292541183
71.398163 1599.0165 738 4291622655
72.633026 1599.1597 739 4291885823
73.871559 1599.3027 740 4292278271
74.990829 1599.3027 740 4292278271
76.234863 1599.4459 741 4292212991
77.355965 1599.4459 741 4292542207
78.605507 1599.589 742 4292411135
79.728439 1599.589 742 4292345343
81.115593 1599.8752 744 4291885311
82.242203 1599.8752 744 4291951103
83.504585 1600.0183 745 4292212991
84.770645 1600.1615 746 4292344575
86.179817 1600.4478 748 4292279039
87.313759 1600.4478 748 4292344831
88.447708 1600.4478 748 4292606975
90.451378 1601.3064 754 4292475135
25.875229 1602.5634 771 4283386225
27.051376 1602.5634 771 4284175485
28.095413 1602.1394 768 4284372348
29.220184 1601.9982 767 4284898692
30.293577 1601.7156 765 4285093005
31.409174 1601.5743 764 4284632454
32.469727 1601.2917 762 4284828009
33.576145 1601.1505 761 4283512149
34.568806 1600.7266 758 4283970652
35.664219 1600.5853 757 4283970652
36.697247 1600.3027 755 4283772505
37.783485 1600.1615 754 4283311954
38.866055 1600.0201 753 4283440462
39.880733 1599.7377 751 4282914118
40.888073 1599.4551 749 4283306575
41.955963 1599.3137 748 4284293470
42.950459 1599.0312 746 4284425290
44.009174 1598.8899 745 4284754255
45.137615 1598.8899 745 4285410893
46.190826 1598.7487 744 4286068566
47.240368 1598.6073 743 4286199906
48.28624 1598.4661 742 4287054959
49.409176 1598.4661 742 4286531438
50.532108 1598.4661 742 4286399596
51.570641 1598.3247 741 4287125356
52.691742 1598.3247 741 4288112251
53.812843 1598.3247 741 4287786398
54.933945 1598.3247 741 4288509864
55.963303 1598.1835 740 4287920046
57.082569 1598.1835 740 4287854253
58.106422 1598.0422 739 4287397295
59.223854 1598.0422 739 4288384190
60.341286 1598.0422 739 4288317882
61.458717 1598.0422 739 4287594158
62.576145 1598.0422 739 4288315584
63.588989 1597.9009 738 4289170892
64.70459 1597.9009 738 4287529915
65.820183 1597.9009 738 4288582346
67.045868 1598.0422 739 4287279606
68.1633 1598.0422 739 4292345599
69.280731 1598.0422 739 4293263359
70.398163 1598.0422 739 4292541183
71.633026 1598.1835 740 4292475647
72.871559 1598.3247 741 4292607231
73.992661 1598.3247 741 4292278783
75.113762 1598.3247 741 4292344575
76.359634 1598.4661 742 4292344831
77.482567 1598.4661 742 4292542207
78.733948 1598.6073 743 4292541439
79.858719 1598.6073 743 4292541439
81.247704 1598.8899 745 4292344575
82.376144 1598.8899 745 4292410623
83.640366 1599.0312 746 4292541695
85.045868 1599.3137 748 4292607487
86.319267 1599.4551 749 4292476671
87.455048 1599.4551 749 4292476671
89.735779 1600.5853 757 4292410623
90.886238 1600.5853 757 4292344831
26.92477 1600.9688 768 4284237685
28.095413 1600.9688 768 4283715438
29.266054 1600.9688 768 4284175989
30.245872 1600.411 764 4284242566
31.409174 1600.411 764 4283584379
32.469727 1600.1321 762 4283714675
33.576145 1599.9927 761 4283714675
34.623852 1599.7137 759 4283911021
35.7211 1599.5743 758 4283581799
36.814678 1599.4348 757 4283709792
37.844036 1599.156 755 4283775841
38.92844 1599.0165 754 4284233321
40.009174 1598.8771 753 4284299114
41.020184 1598.5981 751 4284561506
42.023853 1598.3192 749 4284758884
43.089909 1598.1798 748 4285087331
44.080734 1597.9009 746 4285284967
45.21101 1597.9009 746 4285679209
46.266056 1597.7615 745 4285613416
47.317432 1597.6221 744 4285678708
48.365139 1597.4825 743 4286139259
49.48991 1597.4825 743 4285484669
50.532108 1597.3431 742 4285550463
51.655045 1597.3431 742 4286340746
52.777981 1597.3431 742 4286669711
