# .PCD v0.7 - Point Cloud Data file format
VERSION 0.7
FIELDS x y z rgb
SIZE 4 4 4 4
TYPE F F F U
COUNT 1 1 1 1
WIDTH 1376
HEIGHT 1
VIEWPOINT 0 0 0 1 0 0 0
POINTS 1376
DATA ascii
29.148624 1611.778 741 4288807971
30.220184 1611.6146 740 4288939813
31.288073 1611.4514 739 4288946457
32.299084 1611.1248 737 4289275678
33.412846 1611.1248 737 4289208350
34.355965 1610.6349 734 4288615957
35.464222 1610.6349 734 4289402633
36.511925 1610.4716 733 4289665805
37.555962 1610.3082 732 4289730063
38.72477 1610.4716 733 4289730063
39.831192 1610.4716 733 4290058513
40.801834 1610.1449 731 4291045664
41.904587 1610.1449 731 4290782765
43.007339 1610.1449 731 4290585385
44.110092 1610.1449 731 4290521666
45.212845 1610.1449 731 4291771990
46.315598 1610.1449 731 4291187782
47.41835 1610.1449 731 4291253575
48.440369 1609.9817 730 4291121485
49.541283 1609.9817 730 4291384914
50.6422 1609.9817 730 4290926159
51.743118 1609.9817 730 4291320917
52.844036 1609.9817 730 4289618785
54.034863 1610.1449 731 4294553517
55.137615 1610.1449 731 4292462811
56.333946 1610.3082 732 4294963711
57.438534 1610.3082 732 4294770431
58.543118 1610.3082 732 4294967295
59.647705 1610.3082 732 4294967295
60.752293 1610.3082 732 4294967295
61.85688 1610.3082 732 4294967295
63.066055 1610.4716 733 4294967295
64.172478 1610.4716 733 4294967295
65.2789 1610.4716 733 4294967295
66.495415 1610.6349 734 4294967295
67.603668 1610.6349 734 4294967295
68.711929 1610.6349 734 4294967295
69.820183 1610.6349 734 4294967295
71.1633 1610.9614 736 4294967295
72.27523 1610.9614 736 4294967295
74.477066 1612.4312 745 4294967295
75.359634 1612.1046 743 4294967295
76.858719 1612.5945 746 4294967295
78.242203 1612.9211 748 4294967295
79.376144 1612.9211 748 4294967295
82.073395 1614.8807 760 4294967295
16.106422 1613.2404 757 4286453014
17.25688 1613.2404 757 4286321428
18.407339 1613.2404 757 4286974479
19.495413 1612.9175 755 4287172115
20.609175 1612.756 754 4287563287
21.754128 1612.756 754 4287629080
22.825687 1612.433 752 4288156954
23.92844 1612.2716 751 4288025625
24.987156 1611.9486 749 4288483075
25.99633 1611.4642 746 4288812297
27.038532 1611.1412 744 4289006860
28.119267 1610.9799 743 4289335569
29.196331 1610.8184 742 4289467674
30.269724 1610.6569 741 4289401625
31.339449 1610.4954 740 4289465623
32.405506 1610.334 739 4289465623
33.467892 1610.1725 738 4289793289
34.526604 1610.011 737 4289990925
35.58165 1609.8495 736 4289926667
36.511925 1609.3651 733 4289926667
37.618347 1609.3651 733 4289791744
38.72477 1609.3651 733 4291305238
39.831192 1609.3651 733 4290193696
40.869724 1609.2036 732 4290193696
41.974312 1609.2036 732 4290390055
43.078899 1609.2036 732 4290324262
44.183487 1609.2036 732 4290260014
45.288074 1609.2036 732 4292365646
46.392662 1609.2036 732 4291058259
47.49725 1609.2036 732 4290860879
48.521099 1609.0422 731 4290990669
49.623852 1609.0422 731 4291319634
50.726604 1609.0422 731 4291058509
51.829357 1609.0422 731 4291190351
52.93211 1609.0422 731 4289620584
54.034863 1609.0422 731 4294949817
55.229359 1609.2036 732 4293319906
56.333946 1609.2036 732 4294569716
57.533943 1609.3651 733 4294836223
58.640366 1609.3651 733 4294967295
59.746788 1609.3651 733 4294967295
60.85321 1609.3651 733 4294967295
61.959633 1609.3651 733 4294967295
63.170643 1609.5266 734 4294967295
64.2789 1609.5266 734 4294967295
65.387154 1609.5266 734 4294967295
66.495415 1609.5266 734 4294967295
67.827522 1609.8495 736 4294967295
69.280731 1610.334 739 4294967295
70.28257 1610.1725 738 4294967295
71.515594 1610.334 739 4294967295
73.348625 1611.3027 745 4294967295
74.598167 1611.4642 746 4294967295
75.728439 1611.4642 746 4294967295
77.108253 1611.7871 748 4294967295
78.368805 1611.9486 749 4294967295
80.917435 1613.7247 760 4294967295
82.073395 1613.7247 760 4294967295
17.284403 1612.2495 758 4286255649
18.407339 1612.0898 757 4286715169
19.557798 1612.0898 757 4287373099
20.642202 1611.7706 755 4287373603
21.754128 1611.611 754 4287373603
22.862385 1611.4514 753 4287831072
23.966972 1611.2917 752 4287765279
25.027523 1610.9725 750 4288223518
26.080734 1610.6532 748 4288420640
27.126606 1610.334 746 4288878111
28.165138 1610.0146 744 4288943904
29.244038 1609.8551 743 4289271074
30.319265 1609.6954 742 4289468454
31.390825 1609.5358 741 4289468969
32.511925 1609.5358 741 4289995313
33.522934 1609.2166 739 4289733408
34.583485 1609.0569 738 4290062373
35.640366 1608.8972 737 4290196006
36.693577 1608.7377 736 4290327848
37.680733 1608.4183 734 4290130731
38.78899 1608.4183 734 4289933352
39.897247 1608.4183 734 4290130215
41.005505 1608.4183 734 4289932837
42.044037 1608.2587 733 4290656559
43.150459 1608.2587 733 4291051317
44.256882 1608.2587 733 4290593094
45.363304 1608.2587 733 4292106333
46.469727 1608.2587 733 4290992204
47.576145 1608.2587 733 4290728776
48.682568 1608.2587 733 4290662735
49.706421 1608.0991 732 4290662735
50.811008 1608.0991 732 4290333505
51.915596 1608.0991 732 4291517778
53.020184 1608.0991 732 4289492596
54.124771 1608.0991 732 4294690243
55.229359 1608.0991 732 4293057501
56.427525 1608.2587 733 4293452259
57.533943 1608.2587 733 4294178040
58.737614 1608.4183 734 4294967295
59.845871 1608.4183 734 4294967295
60.954128 1608.4183 734 4294967295
62.267891 1608.7377 736 4294967295
63.484406 1608.8972 737 4294967295
64.491745 1608.7377 736 4294967295
65.387154 1608.4183 734 4294967295
66.935783 1609.0569 738 4294967295
68.1633 1609.2166 739 4294967295
69.508255 1609.5358 741 4294967295
70.744957 1609.6954 742 4294967295
72.102753 1610.0146 744 4294967295
73.467888 1610.334 746 4294967295
74.598167 1610.334 746 4294967295
75.728439 1610.334 746 4294967295
77.108253 1610.6532 748 4294967295
78.495415 1610.9725 750 4294967295
80.788994 1612.4092 759 4294967295
82.073395 1612.5688 760 4294967295
83.361465 1612.7284 761 4294967295
84.519264 1612.7284 761 4294967295
17.284403 1611.0973 758 4286191643
18.407339 1610.9395 757 4286519320
19.557798 1610.9395 757 4287769644
20.642202 1610.6239 755 4287313200
21.78899 1610.6239 755 4287050028
22.899082 1610.4661 754 4287373855
23.966972 1610.1505 752 4287373855
25.06789 1609.9927 751 4288290587
26.122936 1609.677 749 4288224794
27.21468 1609.5193 748 4288551949
28.21101 1609.0459 745 4288880913
29.291742 1608.8881 744 4288945943
30.368807 1608.7302 743 4289011737
31.442202 1608.5725 742 4289274906
32.565136 1608.5725 742 4289538335
33.633026 1608.4147 741 4289407008
34.640366 1608.0991 739 4289933352
35.757797 1608.0991 739 4289934896
36.814678 1607.9413 738 4289934896
37.930275 1607.9413 738 4289934896
38.917431 1607.6257 736 4289606188
40.029358 1607.6257 736 4289670945
41.141285 1607.6257 736 4289999910
42.113762 1607.3101 734 4290593083
43.222019 1607.3101 734 4290921792
44.330276 1607.3101 734 4290661958
45.438534 1607.3101 734 4291583060
46.546787 1607.3101 734 4290796108
47.655045 1607.3101 734 4290269508
48.682568 1607.1523 733 4290071366
49.78899 1607.1523 733 4290860625
50.895412 1607.1523 733 4290666346
52.001835 1607.1523 733 4292047999
53.108257 1607.1523 733 4289693300
54.21468 1607.1523 733 4294101688
55.321102 1607.1523 733 4292795358
56.521099 1607.3101 734 4293387495
57.629356 1607.3101 734 4294046195
58.737614 1607.3101 734 4294967295
60.044037 1607.6257 736 4294967295
61.256882 1607.7834 737 4294967295
62.370644 1607.7834 737 4294967295
63.588989 1607.9413 738 4294967295
64.70459 1607.9413 738 4294967295
65.928444 1608.0991 739 4294967295
67.15596 1608.2568 740 4294967295
68.387154 1608.4147 741 4294967295
69.622017 1608.5725 742 4294967295
70.86055 1608.7302 743 4294967295
72.220184 1609.0459 745 4294967295
73.467888 1609.2036 746 4294967295
74.598167 1609.2036 746 4294967295
75.728439 1609.2036 746 4294967295
77.108253 1609.5193 748 4294967295
78.495415 1609.8348 750 4294967295
80.788994 1611.255 759 4294967295
82.073395 1611.4128 760 4294967295
83.229355 1611.4128 760 4294967295
84.385323 1611.4128 760 4294967295
18.436697 1609.9449 758 4286983206
19.557798 1609.7889 757 4287377707
20.708258 1609.7889 757 4287377961
21.78899 1609.4771 755 4287443755
22.93578 1609.4771 755 4287770923
24.005505 1609.1652 753 4287968302
25.06789 1608.8533 751 4288099109
26.165138 1608.6973 750 4288099109
27.21468 1608.3854 748 4288688418
28.25688 1608.0734 746 4288951333
29.339449 1607.9175 745 4289147683
30.46789 1607.9175 745 4289213477
31.493578 1607.6055 743 4289279270
32.618347 1607.6055 743 4289674028
33.688072 1607.4496 742 4289411371
34.754128 1607.2936 741 4289477164
35.757797 1606.9817 739 4289674293
36.875229 1606.9817 739 4289674293
37.930275 1606.8257 738 4289870135
38.981651 1606.6697 737 4290396735
40.095413 1606.6697 737 4290266932
41.141285 1606.5138 736 4290332725
42.253212 1606.5138 736 4290593596
43.365139 1606.5138 736 4291185733
44.477066 1606.5138 736 4290596426
45.588989 1606.5138 736 4291780701
46.700916 1606.5138 736 4290730061
47.812843 1606.5138 736 4290203717
48.763302 1606.2018 734 4289678918
49.871559 1606.2018 734 4293889670
50.979816 1606.2018 734 4294889414
52.088074 1606.2018 734 4294957519
53.196331 1606.2018 734 4293250233
54.304588 1606.2018 734 4293776833
55.412846 1606.2018 734 4293255142
56.521099 1606.2018 734 4294242293
57.820183 1606.5138 736 4293915638
58.93211 1606.5138 736 4294967295
60.14312 1606.6697 737 4294967295
61.3578 1606.8257 738 4294967295
62.473396 1606.8257 738 4294967295
63.693577 1606.9817 739 4294967295
64.811012 1606.9817 739 4294967295
66.036697 1607.1376 740 4294967295
67.376144 1607.4496 742 4294967295
68.611008 1607.6055 743 4294967295
69.735779 1607.6055 743 4294967295
71.091743 1607.9175 745 4294967295
72.337616 1608.0734 746 4294967295
73.706421 1608.3854 748 4294967295
74.84037 1608.3854 748 4294967295
75.974312 1608.3854 748 4294967295
77.108253 1608.3854 748 4294967295
79.381653 1609.7889 757 4294967295
80.660553 1609.9449 758 4294967295
81.943123 1610.101 759 4294967295
83.229355 1610.2568 760 4294967295
84.519264 1610.4128 761 4294967295
19.588991 1608.7927 758 4286984739
20.741285 1608.7927 758 4287245347
21.858715 1608.6385 757 4287574311
22.93578 1608.3303 755 4287443755
24.044037 1608.1761 754 4287443755
25.108257 1607.8679 752 4287575593
26.165138 1607.5596 750 4287575593
27.258715 1607.4055 749 4288493102
28.348623 1607.2513 748 4288690224
29.387156 1606.9431 746 4288821299
30.46789 1606.7889 745 4288952628
31.596331 1606.7889 745 4288952619
32.671558 1606.6349 744 4289149998
33.743118 1606.4807 743 4289084217
34.811008 1606.3267 742 4288952630
35.875229 1606.1725 741 4289345858
36.93578 1606.0183 740 4289411651
38.055046 1606.0183 740 4289674293
39.045872 1605.7101 738 4290332223
40.161469 1605.7101 738 4290332223
41.209175 1605.5559 737 4290398016
42.322937 1605.5559 737 4290725948
43.436699 1605.5559 737 4290923327
44.550457 1605.5559 737 4290464064
45.664219 1605.5559 737 4291713874
46.777981 1605.5559 737 4291126103
47.812843 1605.4019 736 4290665552
48.92477 1605.4019 736 4289614147
50.036697 1605.4019 736 4293627263
51.148624 1605.4019 736 4294234584
52.088074 1605.0936 734 4294563293
53.196331 1605.0936 734 4292397246
54.304588 1605.0936 734 4293120712
55.412846 1605.0936 734 4293386716
56.708256 1605.4019 736 4293978853
57.820183 1605.4019 736 4294046454
58.93211 1605.4019 736 4294967295
60.14312 1605.5559 737 4294967295
61.3578 1605.7101 738 4294967295
62.576145 1605.8643 739 4294967295
63.693577 1605.8643 739 4294967295
64.917435 1606.0183 740 4294967295
66.253212 1606.3267 742 4294967295
67.486237 1606.4807 743 4294967295
68.722939 1606.6349 744 4294967295
69.849541 1606.6349 744 4294967295
71.091743 1606.7889 745 4294967295
72.337616 1606.9431 746 4294967295
73.706421 1607.2513 748 4294967295
74.84037 1607.2513 748 4294967295
76.097244 1607.4055 749 4294967295
77.607338 1607.8679 752 4294967295
79.508255 1608.7927 758 4294967295
80.660553 1608.7927 758 4294967295
81.943123 1608.9468 759 4294967295
83.229355 1609.101 760 4294967295
19.620184 1607.7927 759 4286858813
20.774311 1607.7927 759 4286657586
21.893578 1607.6404 758 4286460208
23.009174 1607.488 757 4287116589
24.082569 1607.1835 755 4287248175
25.148624 1606.8789 753 4287641134
26.20734 1606.5743 751 4287838512
27.302752 1606.422 750 4288297267
28.348623 1606.1174 748 4289086784
29.387156 1605.8129 746 4288755517
30.517431 1605.8129 746 4288689724
31.596331 1605.6605 745 4288886322
32.72477 1605.6605 745 4289083957
33.798164 1605.5083 744 4289281082
34.867889 1605.356 743 4289346875
35.992661 1605.356 743 4289542471
37.056881 1605.2036 742 4290200401
38.117432 1605.0514 741 4290002236
39.174313 1604.899 740 4290199872
40.227524 1604.7468 739 4290199872
41.277065 1604.5945 738 4290594630
42.462387 1604.7468 739 4290132784
43.508255 1604.5945 738 4290461493
44.623852 1604.5945 738 4289936686
45.739449 1604.5945 738 4293489251
46.855045 1604.5945 738 4293635463
47.970642 1604.5945 738 4294556565
49.086239 1604.5945 738 4293046935
50.201836 1604.5945 738 4291138938
51.233028 1604.4421 737 4293380288
52.34679 1604.4421 737 4294761941
53.460552 1604.4421 737 4292658366
54.57431 1604.4421 737 4290552734
55.688072 1604.4421 737 4289701556
56.801834 1604.4421 737 4293846259
57.915596 1604.4421 737 4294836223
59.029358 1604.4421 737 4294967295
60.242203 1604.5945 738 4294967295
61.458717 1604.7468 739 4294967295
62.678898 1604.899 740 4294967295
63.902752 1605.0514 741 4294967295
65.130272 1605.2036 742 4294967295
66.361465 1605.356 743 4294967295
67.596329 1605.5083 744 4294967295
68.722939 1605.5083 744 4294967295
69.963303 1605.6605 745 4294967295
71.207336 1605.8129 746 4294967295
72.572479 1606.1174 748 4294967295
73.825691 1606.2698 749 4294967295
74.961472 1606.2698 749 4294967295
76.343117 1606.5743 751 4294967295
77.732109 1606.8789 753 4294967295
79.634865 1607.7927 759 4294967295
80.660553 1607.6404 758 4294967295
82.073395 1607.9449 760 4294967295
83.361465 1608.0973 761 4294967295
18.524771 1606.9395 761 4287454307
19.68257 1606.9395 761 4287125342
20.807339 1606.7889 760 4287255634
21.92844 1606.6385 759 4287386963
23.045872 1606.488 758 4288237673
24.159634 1606.3376 757 4287514206
25.188992 1605.8862 754 4287443755
26.249542 1605.5853 752 4287707183
27.346788 1605.4348 751 4288297267
28.394495 1605.1339 749 4288428853
29.482569 1604.9835 748 4288689461
30.517431 1604.6826 746 4288821047
31.647707 1604.6826 746 4289083435
32.777981 1604.6826 746 4289215021
33.85321 1604.5321 745 4289412659
34.92477 1604.3816 744 4289346610
36.051376 1604.3816 744 4289476674
37.117432 1604.2312 743 4290003274
38.179817 1604.0807 742 4289807415
39.302753 1604.0807 742 4289609779
40.359634 1603.9303 741 4289937199
41.344955 1603.6294 739 4290397750
42.462387 1603.6294 739 4290068022
43.579815 1603.6294 739 4290133815
44.697247 1603.6294 739 4289478429
45.739449 1603.4789 738 4294478697
46.93211 1603.6294 739 4293701322
48.049541 1603.6294 739 4294359508
49.166973 1603.6294 739 4292852145
50.201836 1603.4789 738 4290549391
51.317432 1603.4789 738 4292458173
52.433029 1603.4789 738 4294695135
53.548622 1603.4789 738 4292527814
54.664219 1603.4789 738 4289698715
55.779816 1603.4789 738 4289370233
56.988991 1603.6294 739 4294962638
58.011009 1603.4789 738 4294967295
59.223854 1603.6294 739 4294967295
60.539448 1603.9303 741 4294967295
61.660549 1603.9303 741 4294967295
62.781651 1603.9303 741 4294967295
64.007339 1604.0807 742 4294967295
65.130272 1604.0807 742 4294967295
66.469727 1604.3816 744 4294967295
67.596329 1604.3816 744 4294967295
68.834862 1604.5321 745 4294967295
69.963303 1604.5321 745 4294967295
71.43853 1604.9835 748 4294967295
72.689911 1605.1339 749 4294967295
73.944954 1605.2844 750 4294967295
75.203667 1605.4348 751 4294967295
76.466057 1605.5853 752 4294967295
77.981651 1606.0367 755 4294967295
79.888077 1606.9395 761 4294967295
80.917435 1606.7889 760 4294967295
82.203667 1606.9395 761 4294967295
18.612844 1606.2275 764 4289298574
19.713762 1605.9303 762 4288706437
20.840366 1605.7816 761 4288770946
21.963303 1605.6331 760 4289494926
23.082569 1605.4844 759 4290150021
24.198166 1605.3358 758 4286991957
25.229359 1604.8899 755 4287311142
26.291742 1604.5927 753 4287837486
27.390825 1604.4441 752 4288294957
28.440367 1604.1467 750 4288360750
29.482569 1603.8495 748 4288622634
30.616514 1603.8495 748 4288754220
31.647707 1603.5522 746 4288950820
32.777981 1603.5522 746 4289082663
33.85321 1603.4037 745 4289212713
34.981651 1603.4037 745 4289344043
36.110092 1603.4037 745 4289409334
37.238533 1603.4037 745 4289804092
38.242203 1603.1064 743 4289476394
39.431194 1603.255 744 4290002738
40.491745 1603.1064 743 4289876549
41.548622 1602.9578 742 4292705648
42.601833 1602.8092 741 4293041038
43.651375 1602.6605 740 4292646281
44.697247 1602.512 739 4292319365
45.814678 1602.512 739 4294951084
46.93211 1602.512 739 4294894059
48.049541 1602.512 739 4294499557
49.247707 1602.6605 740 4291865019
50.284405 1602.512 739 4289825435
51.401836 1602.512 739 4292919489
52.519264 1602.512 739 4294962156
53.636696 1602.512 739 4293707975
54.844036 1602.6605 740 4288905085
55.963303 1602.6605 740 4289040519
57.082569 1602.6605 740 4294963432
58.201836 1602.6605 740 4294967295
59.41835 1602.8092 741 4294967295
60.638531 1602.9578 742 4294967295
61.761467 1602.9578 742 4294967295
62.987156 1603.1064 743 4294967295
64.111923 1603.1064 743 4294967295
65.236694 1603.1064 743 4294967295
66.469727 1603.255 744 4294967295
67.596329 1603.255 744 4294967295
68.834862 1603.4037 745 4294967295
69.963303 1603.4037 745 4294967295
71.207336 1603.5522 746 4294967295
72.689911 1603.9982 749 4294967295
74.064217 1604.2954 751 4294967295
75.324768 1604.4441 752 4294967295
76.711929 1604.7413 754 4294967295
78.231194 1605.1871 757 4294967295
79.888077 1605.7816 761 4294967295
80.917435 1605.6331 760 4294967295
82.203667 1605.7816 761 4294967295
18.612844 1605.0642 764 4288710534
19.776146 1605.0642 764 4287394674
20.840366 1604.6239 761 4287982698
21.963303 1604.4771 760 4289167228
23.082569 1604.3303 759 4291006109
24.198166 1604.1835 758 4286598235
25.310091 1604.0367 757 4287506468
26.376146 1603.7432 755 4288098605
27.434862 1603.4496 753 4288360218
28.486238 1603.156 751 4288754976
29.530275 1602.8624 749 4288754736
30.666056 1602.8624 749 4288754736
31.750458 1602.7156 748 4289082911
32.884403 1602.7156 748 4289346082
33.908257 1602.422 746 4289475390
35.038532 1602.422 746 4289344061
36.168808 1602.422 746 4289739012
37.299084 1602.422 746 4290199562
38.366974 1602.2753 745 4289609550
39.495415 1602.2753 745 4290070101
40.623852 1602.2753 745 4290471754
41.616512 1601.9817 743 4292840302
42.741283 1601.9817 743 4292781244
43.794495 1601.8348 742 4293438917
44.844036 1601.6881 741 4292127895
45.889908 1601.5413 740 4293970099
47.086239 1601.6881 741 4294305786
48.128441 1601.5413 740 4293187304
49.328442 1601.6881 741 4291012524
50.366974 1601.5413 740 4289565078
51.401836 1601.3945 739 4293639360
52.605503 1601.5413 740 4293902789
53.812843 1601.6881 741 4293112240
54.933945 1601.6881 741 4290414983
56.055046 1601.6881 741 4289629835
57.269726 1601.8348 742 4294963437
58.392662 1601.8348 742 4294967295
59.612843 1601.9817 743 4294967295
60.737614 1601.9817 743 4294967295
61.862385 1601.9817 743 4294967295
62.987156 1601.9817 743 4294967295
64.111923 1601.9817 743 4294967295
65.236694 1601.9817 743 4294967295
66.469727 1602.1284 744 4294967295
67.706421 1602.2753 745 4294967295
68.834862 1602.2753 745 4294967295
70.077065 1602.422 746 4294967295
71.43853 1602.7156 748 4294967295
72.924774 1603.156 751 4294967295
74.30275 1603.4496 753 4294967295
75.566971 1603.5963 754 4294967295
77.080734 1604.0367 757 4294967295
78.730278 1604.6239 761 4294967295
79.761467 1604.4771 760 4294967295
80.917435 1604.4771 760 4294967295
82.073395 1604.4771 760 4294967295
19.807339 1604.0459 765 4285613135
20.939449 1603.9009 764 4288111704
21.998165 1603.4661 761 4289164648
23.119267 1603.321 760 4289296746
24.236698 1603.1761 759 4285480751
25.350458 1603.0312 758 4286389018
26.46055 1602.8862 757 4286652190
27.434862 1602.3064 753 4287372819
28.53211 1602.1615 752 4289543988
29.577982 1601.8716 750 4289552717
30.715597 1601.8716 750 4290210391
31.801834 1601.7266 749 4290275673
32.937614 1601.7266 749 4291459946
34.018349 1601.5817 748 4291263596
35.038532 1601.2917 746 4289224014
36.168808 1601.2917 746 4288953632
37.299084 1601.2917 746 4292243282
38.429359 1601.2917 746 4292912780
39.559631 1601.2917 746 4292715658
40.689907 1601.2917 746 4290872711
41.752293 1601.1467 745 4292188571
42.741283 1600.8569 743 4293901254
43.866055 1600.8569 743 4294953942
44.990826 1600.8569 743 4292719533
45.965137 1600.567 741 4294101186
47.163303 1600.7119 742 4294895856
48.20734 1600.567 741 4293580252
49.328442 1600.567 741 4291533991
50.449543 1600.567 741 4288507257
51.48624 1600.422 740 4290211185
52.691742 1600.567 741 4290540407
53.900917 1600.7119 742 4290409334
55.023853 1600.7119 742 4291462022
56.14679 1600.7119 742 4289697949
57.269726 1600.7119 742 4294964731
58.488075 1600.8569 743 4294967295
59.612843 1600.8569 743 4294967295
60.836697 1601.0018 744 4294967295
61.963303 1601.0018 744 4294967295
63.089909 1601.0018 744 4294967295
64.216515 1601.0018 744 4294967295
65.343117 1601.0018 744 4294967295
66.57798 1601.1467 745 4294967295
67.816513 1601.2917 746 4294967295
68.946793 1601.2917 746 4294967295
70.304588 1601.5817 748 4294967295
71.669724 1601.8716 750 4294967295
73.042198 1602.1615 752 4294967295
74.42202 1602.4514 754 4294967295
75.930275 1602.8862 757 4294967295
77.203667 1603.0312 758 4294967295
78.605507 1603.321 760 4294967295
79.761467 1603.321 760 4294967295
80.917435 1603.321 760 4294967295
82.073395 1603.321 760 4294967295
19.838531 1603.0238 766 4287974950
20.939449 1602.7377 764 4288637289
21.998165 1602.3082 761 4289821306
23.119267 1602.1652 760 4289428379
24.275229 1602.1652 760 4285019991
25.390825 1602.022 759 4286717184
26.544954 1602.022 759 4288559369
27.522936 1601.4496 755 4287905871
28.577982 1601.1633 753 4288892766
29.673395 1601.0201 752 4290344068
30.765137 1600.8771 751 4289422967
31.85321 1600.7339 750 4289423707
32.937614 1600.5908 749 4290607981
34.073395 1600.5908 749 4290807942
35.152294 1600.4478 748 4288373345
36.28624 1600.4478 748 4287708726
37.420185 1600.4478 748 4294090647
38.429359 1600.1615 746 4292656611
39.559631 1600.1615 746 4290748614
40.689907 1600.1615 746 4289492844
41.752293 1600.0183 745 4291861648
42.880733 1600.0183 745 4293376454
43.937614 1599.8752 744 4291863472
44.990826 1599.7321 743 4289563501
46.115597 1599.7321 743 4293971633
47.240368 1599.7321 743 4294962173
48.28624 1599.589 742 4293185505
49.409176 1599.589 742 4291731354
50.532108 1599.589 742 4288573290
51.655045 1599.589 742 4290599758
52.777981 1599.589 742 4291389018
53.988991 1599.7321 743 4290538077
55.113762 1599.7321 743 4291919730
56.238533 1599.7321 743 4290027171
57.363304 1599.7321 743 4294966015
58.488075 1599.7321 743 4294967295
59.710091 1599.8752 744 4294967295
60.93578 1600.0183 745 4294967295
62.06422 1600.0183 745 4294967295
63.192661 1600.0183 745 4294967295
64.321098 1600.0183 745 4294967295
65.555962 1600.1615 746 4294967295
66.686241 1600.1615 746 4294967295
68.036697 1600.4478 748 4294967295
69.170639 1600.4478 748 4294967295
70.532112 1600.7339 750 4294967295
71.900917 1601.0201 752 4294967295
73.277061 1601.3064 754 4294967295
74.541283 1601.4496 755 4294967295
76.051376 1601.8789 758 4294967295
77.326607 1602.022 759 4294967295
78.480736 1602.022 759 4294967295
79.888077 1602.3082 761 4294967295
81.045868 1602.3082 761 4294967295
21.998165 1601.1505 761 4293179591
23.119267 1601.0092 760 4291801272
24.275229 1601.0092 760 4285550937
25.431192 1601.0092 760 4285806611
26.544954 1600.8679 759 4291399016
27.61101 1600.5853 757 4292720037
28.761467 1600.5853 757 4292720037
29.816513 1600.3027 755 4291005860
30.86422 1600.0201 753 4287453038
31.955963 1599.8789 752 4288893501
33.044037 1599.7377 751 4289880396
34.128441 1599.5963 750 4289750384
35.209175 1599.4551 749 4290803073
36.344955 1599.4551 749 4290086543
37.480736 1599.4551 749 4294958566
38.554127 1599.3137 748 4294961903
39.688072 1599.3137 748 4290159014
40.822018 1599.3137 748 4289164144
41.820183 1599.0312 746 4291006348
42.880733 1598.8899 745 4290144138
44.009174 1598.8899 745 4288301935
45.06422 1598.7487 744 4289685832
46.190826 1598.7487 744 4294955182
47.317432 1598.7487 744 4294958822
48.365139 1598.6073 743 4291931316
49.48991 1598.6073 743 4292382845
50.614677 1598.6073 743 4288961609
51.823853 1598.7487 744 4290597712
52.950459 1598.7487 744 4292308073
54.165138 1598.8899 745 4290670190
55.203671 1598.7487 744 4291722878
56.330276 1598.7487 744 4290028198
57.550457 1598.8899 745 4294967295
58.678898 1598.8899 745 4294967295
59.904587 1599.0312 746 4294967295
61.034863 1599.0312 746 4294967295
62.165138 1599.0312 746 4294967295
63.295414 1599.0312 746 4294967295
64.42569 1599.0312 746 4294967295
65.768806 1599.3137 748 4294967295
66.902756 1599.3137 748 4294967295
68.14679 1599.4551 749 4294967295
69.394493 1599.5963 750 4294967295
70.873398 1600.0201 753 4294967295
72.132111 1600.1615 754 4294967295
73.394493 1600.3027 755 4294967295
74.779816 1600.5853 757 4294967295
76.172478 1600.8679 759 4294967295
77.572479 1601.1505 761 4294967295
78.730278 1601.1505 761 4294967295
23.155964 1599.9927 761 4291276745
24.313761 1599.9927 761 4285420912
25.431192 1599.8533 760 4284364032
26.587156 1599.8533 760 4292785516
27.699083 1599.7137 759 4291479246
28.807339 1599.5743 758 4290163386
29.911926 1599.4348 757 4289955986
30.913761 1599.0165 754 4286205785
32.058716 1599.0165 754 4288490521
33.097248 1598.7377 752 4289477416
34.183487 1598.5981 751 4288760366
35.322937 1598.5981 751 4291128914
36.403671 1598.4587 750 4289500327
37.541283 1598.4587 750 4294040301
38.616512 1598.3192 749 4294504447
39.752293 1598.3192 749 4289504443
40.822018 1598.1798 748 4289491814
41.955963 1598.1798 748 4290412916
42.950459 1597.9009 746 4290600803
44.080734 1597.9009 746 4290074459
45.137615 1597.7615 745 4290402893
46.266056 1597.7615 745 4294947750
47.394497 1597.7615 745 4294166740
48.522934 1597.7615 745 4291732399
49.570641 1597.6221 744 4290802280
50.779816 1597.7615 745 4289486420
51.908257 1597.7615 745 4290860625
53.122936 1597.9009 746 4292110949
54.165138 1597.7615 745 4290605167
55.293579 1597.7615 745 4291789440
56.42202 1597.7615 745 4290618799
57.550457 1597.7615 745 4294967295
58.774311 1597.9009 746 4294967295
60.099083 1598.1798 748 4294967295
61.233028 1598.1798 748 4294967295
62.366974 1598.1798 748 4294967295
63.500916 1598.1798 748 4294967295
64.739449 1598.3192 749 4294967295
65.875229 1598.3192 749 4294967295
67.119263 1598.4587 750 4294967295
68.366974 1598.5981 751 4294967295
69.842201 1599.0165 754 4294967295
71.100914 1599.156 755 4294967295
72.478897 1599.4348 757 4294967295
73.629356 1599.4348 757 4294967295
74.899086 1599.5743 758 4294967295
76.293579 1599.8533 760 4294967295
77.572479 1599.9927 761 4294967295
24.313761 1598.8348 761 4285027671
25.47156 1598.8348 761 4285288532
26.587156 1598.6973 760 4292459970
27.699083 1598.5596 759 4292068026
28.85321 1598.5596 759 4289041548
29.959633 1598.422 758 4289363043
30.963303 1598.0092 755 4284954911
32.110092 1598.0092 755 4287702816
33.203671 1597.8716 754 4288229160
34.238533 1597.5963 752 4288295427
35.322937 1597.4587 751 4292177214
36.462387 1597.4587 751 4290877622
37.601833 1597.4587 751 4294957559
38.678898 1597.321 750 4294831863
39.752293 1597.1835 749 4291476164
40.888073 1597.1835 749 4291402389
41.955963 1597.0459 748 4291007632
43.089909 1597.0459 748 4292120184
44.223854 1597.0459 748 4291001960
45.3578 1597.0459 748 4291190390
46.491745 1597.0459 748 4292966801
47.471561 1596.7706 746 4291981691
48.601833 1596.7706 746 4289481557
49.732109 1596.7706 746 4290596172
50.862385 1596.7706 746 4291188566
52.161469 1597.0459 748 4290795614
53.122936 1596.7706 746 4291716716
54.429359 1597.0459 748 4290409330
55.383488 1596.7706 746 4292712085
56.697247 1597.0459 748 4290949822
57.831192 1597.0459 748 4294967295
59.060551 1597.1835 749 4294967295
60.196331 1597.1835 749 4294967295
61.431194 1597.321 750 4294967295
62.568806 1597.321 750 4294967295
63.706421 1597.321 750 4294967295
64.84404 1597.321 750 4294967295
65.981651 1597.321 750 4294967295
67.227524 1597.4587 751 4294967295
68.587158 1597.7339 753 4294967295
69.954132 1598.0092 755 4294967295
71.328438 1598.2844 757 4294967295
72.594498 1598.422 758 4294967295
73.746788 1598.422 758 4294967295
75.018349 1598.5596 759 4294967295
76.41468 1598.8348 761 4294967295
77.941284 1599.2477 764 4294967295
79.354126 1599.5229 766 4294967295
25.511927 1597.8129 762 4286141496
26.629358 1597.677 761 4292326294
27.74312 1597.5413 760 4291215810
28.899082 1597.5413 760 4289899951
30.007339 1597.4055 759 4288970640
31.062386 1597.1339 757 4284825681
32.212845 1597.1339 757 4288356916
33.256882 1596.8624 755 4289146176
34.348625 1596.7266 754 4288687886
35.379818 1596.4551 752 4291714365
36.521099 1596.4551 752 4291860112
37.601833 1596.3192 751 4294955468
38.741283 1596.3192 751 4294898170
39.880733 1596.3192 751 4291674313
40.954128 1596.1835 750 4292653236
42.023853 1596.0477 749 4290942874
43.159634 1596.0477 749 4292054923
44.295414 1596.0477 749 4290410354
45.431194 1596.0477 749 4291190110
46.491745 1595.9119 748 4292242799
47.625687 1595.9119 748 4292109416
48.759632 1595.9119 748 4290464334
49.893578 1595.9119 748 4290528583
51.027523 1595.9119 748 4291515478
52.161469 1595.9119 748 4290861400
53.295414 1595.9119 748 4291913831
54.429359 1595.9119 748 4290541172
55.563301 1595.9119 748 4292777878
56.78899 1596.0477 749 4291738561
57.92477 1596.0477 749 4294967295
59.155964 1596.1835 750 4294967295
60.293579 1596.1835 750 4294967295
61.431194 1596.1835 750 4294967295
62.669724 1596.3192 751 4294967295
63.809174 1596.3192 751 4294967295
64.948624 1596.3192 751 4294967295
66.194496 1596.4551 752 4294967295
67.444038 1596.5908 753 4294967295
68.807343 1596.8624 755 4294967295
70.177979 1597.1339 757 4294967295
71.4422 1597.2698 758 4294967295
72.594498 1597.2698 758 4294967295
73.86422 1597.4055 759 4294967295
75.137611 1597.5413 760 4294967295
76.41468 1597.677 761 4294967295
77.941284 1598.0844 764 4294967295
79.354126 1598.356 766 4294967295
25.592661 1596.9211 764 4287057217
26.67156 1596.6532 762 4291794569
27.787155 1596.5193 761 4292592312
28.899082 1596.3854 760 4292921021
30.007339 1596.2513 759 4292194745
31.062386 1595.9835 757 4289300109
32.212845 1595.9835 757 4290409612
33.363304 1595.9835 757 4290014854
34.403671 1595.7156 755 4290537559
35.49358 1595.5817 754 4289155906
36.579815 1595.4478 753 4291857698
37.662384 1595.3137 752 4292910642
38.803669 1595.3137 752 4292583599
39.880733 1595.1798 751 4292583599
41.020184 1595.1798 751 4292253335
42.091743 1595.0459 750 4289555822
43.229359 1595.0459 750 4289940318
44.366974 1595.0459 750 4289348438
45.504585 1595.0459 750 4291383891
46.6422 1595.0459 750 4293028973
47.702751 1594.9119 749 4292109916
48.838531 1594.9119 749 4290662469
49.974312 1594.9119 749 4290989915
51.110092 1594.9119 749 4291516259
52.245872 1594.9119 749 4290927958
53.381653 1594.9119 749 4291914853
54.517429 1594.9119 749 4290541172
55.65321 1594.9119 749 4293238429
56.880733 1595.0459 750 4291740097
58.018349 1595.0459 750 4294967295
59.251377 1595.1798 751 4294967295
60.390827 1595.1798 751 4294967295
61.530273 1595.1798 751 4294967295
62.770641 1595.3137 752 4294967295
63.911926 1595.3137 752 4294967295
65.053207 1595.3137 752 4294967295
66.300919 1595.4478 753 4294967295
67.552292 1595.5817 754 4294967295
68.807343 1595.7156 755 4294967295
70.177979 1595.9835 757 4294967295
71.4422 1596.1174 758 4294967295
72.710091 1596.2513 759 4294967295
73.981651 1596.3854 760 4294967295
75.256882 1596.5193 761 4294967295
76.535782 1596.6532 762 4294967295
78.187157 1597.189 766 4294967295
79.603668 1597.4569 768 4294967295
81.154129 1597.8588 771 4294967295
25.754128 1596.2863 768 4287113760
26.67156 1595.4935 762 4291982443
27.831192 1595.4935 762 4290550939
28.899082 1595.2294 760 4292195765
30.007339 1595.0973 759 4292523716
31.111927 1594.9651 758 4289562775
32.212845 1594.833 757 4290871948
33.363304 1594.833 757 4289950846
34.403671 1594.5688 755 4290669928
35.49358 1594.4366 754 4288630089
36.638531 1594.4366 754 4289871139
37.722935 1594.3046 753 4291252792
38.866055 1594.3046 753 4290994542
39.944954 1594.1725 752 4290797162
41.086239 1594.1725 752 4290732653
42.159634 1594.0404 751 4289811551
43.299084 1594.0404 751 4290330186
44.438534 1594.0404 751 4290527821
45.57798 1594.0404 751 4291581525
46.71743 1594.0404 751 4293291886
47.779816 1593.9082 750 4291913831
48.917431 1593.9082 750 4290400849
50.055046 1593.9082 750 4290991184
51.192661 1593.9082 750 4291056977
52.330276 1593.9082 750 4291059546
53.467892 1593.9082 750 4292111977
54.605503 1593.9082 750 4290803323
55.743118 1593.9082 750 4293632422
56.972477 1594.0404 751 4292068805
58.111927 1594.0404 751 4294967295
59.251377 1594.0404 751 4294967295
60.488075 1594.1725 752 4294967295
61.629356 1594.1725 752 4294967295
62.871559 1594.3046 753 4294967295
64.014679 1594.3046 753 4294967295
65.157799 1594.3046 753 4294967295
66.407341 1594.4366 754 4294967295
67.660553 1594.5688 755 4294967295
69.027519 1594.833 757 4294967295
70.289909 1594.9651 758 4294967295
71.555962 1595.0973 759 4294967295
72.825691 1595.2294 760 4294967295
74.099083 1595.3615 761 4294967295
75.376144 1595.4935 762 4294967295
76.777985 1595.7578 764 4294967295
78.187157 1596.022 766 4294967295
79.603668 1596.2863 768 4294967295
81.027519 1596.5504 770 4294967295
23.559633 1595.6367 772 4287377961
24.699083 1595.5065 771 4287575341
25.834862 1595.3761 770 4287441445
26.798164 1594.7247 765 4287178016
27.831192 1594.334 762 4287577628
28.944954 1594.2036 761 4288893488
30.055046 1594.0734 760 4288895066
31.161469 1593.9431 759 4289092189
32.315598 1593.9431 759 4289285979
33.416515 1593.8129 758 4288825428
34.51376 1593.6826 757 4289150512
35.664219 1593.6826 757 4288624167
36.814678 1593.6826 757 4289276471
37.783485 1593.2917 754 4289078836
38.92844 1593.2917 754 4289406758
40.073395 1593.2917 754 4289867309
41.152294 1593.1615 753 4289671729
42.295414 1593.1615 753 4290066487
43.368809 1593.0312 752 4290198086
44.51009 1593.0312 752 4290987346
45.651375 1593.0312 752 4291449938
46.79266 1593.0312 752 4293423729
47.85688 1592.9009 751 4292044906
48.99633 1592.9009 751 4289939273
50.13578 1592.9009 751 4290463560
51.27523 1592.9009 751 4291121233
52.499084 1593.0312 752 4290599506
53.554127 1592.9009 751 4292310124
54.781651 1593.0312 752 4290476690
55.922935 1593.0312 752 4293239996
57.06422 1593.0312 752 4291675587
58.205505 1593.0312 752 4294967295
59.34679 1593.0312 752 4294967295
60.488075 1593.0312 752 4294967295
61.728439 1593.1615 753 4294967295
62.972477 1593.2917 754 4294967295
64.117432 1593.2917 754 4294967295
65.366974 1593.422 755 4294967295
66.513763 1593.422 755 4294967295
67.877068 1593.6826 757 4294967295
69.137611 1593.8129 758 4294967295
70.401833 1593.9431 759 4294967295
71.669724 1594.0734 760 4294967295
72.825691 1594.0734 760 4294967295
74.099083 1594.2036 761 4294967295
75.376144 1594.334 762 4294967295
76.899086 1594.7247 765 4294967295
78.433029 1595.1156 768 4294967295
79.85321 1595.3761 770 4294967295
81.027519 1595.3761 770 4294967295
23.559633 1594.4587 772 4287311142
24.699083 1594.3303 771 4287574057
25.875229 1594.3303 771 4287968300
26.882568 1593.8165 767 4287639591
28.007339 1593.6881 766 4288228630
28.990826 1593.1743 762 4288162837
30.102753 1593.0459 761 4288755004
31.21101 1592.9175 760 4288755004
32.315598 1592.7889 759 4289016125
33.469727 1592.7889 759 4289016125
34.623852 1592.7889 759 4289146920
35.7211 1592.6605 758 4289475629
36.873394 1592.6605 758 4289868851
37.844036 1592.2753 755 4289737522
38.990826 1592.2753 755 4289998130
40.137615 1592.2753 755 4290590010
41.218349 1592.1467 754 4290395449
42.363304 1592.1467 754 4290395449
43.438534 1592.0183 753 4290330690
44.58165 1592.0183 753 4290857034
45.72477 1592.0183 753 4291317583
46.867889 1592.0183 753 4292765029
47.933945 1591.8899 752 4292044134
49.07523 1591.8899 752 4290004807
50.216515 1591.8899 752 4290594630
51.3578 1591.8899 752 4291252560
52.499084 1591.8899 752 4290402643
53.640366 1591.8899 752 4293429121
54.781651 1591.8899 752 4291270553
56.012844 1592.0183 753 4292454828
57.155964 1592.0183 753 4291544006
58.299084 1592.0183 753 4294967295
59.442204 1592.0183 753 4294967295
60.58532 1592.0183 753 4294967295
61.827522 1592.1467 754 4294967295
63.073395 1592.2753 755 4294967295
64.42569 1592.5321 757 4294967295
65.576149 1592.5321 757 4294967295
66.726608 1592.5321 757 4294967295
67.985321 1592.6605 758 4294967295
69.247704 1592.7889 759 4294967295
70.513763 1592.9175 760 4294967295
71.783485 1593.0459 761 4294967295
72.941284 1593.0459 761 4294967295
74.216515 1593.1743 762 4294967295
75.614677 1593.4312 764 4294967295
77.141281 1593.8165 767 4294967295
78.678902 1594.2018 770 4294967295
79.977982 1594.3303 771 4294967295
81.154129 1594.3303 771 4294967295
23.559633 1593.2808 772 4287770417
24.699083 1593.1542 771 4287902259
25.834862 1593.0275 770 4288098607
26.92477 1592.7743 768 4288164400
28.051376 1592.6477 767 4288490803
29.082569 1592.2679 764 4288293167
30.102753 1591.8881 761 4288686381
31.21101 1591.7615 760 4288817967
32.366974 1591.7615 760 4288882479
33.522934 1591.7615 760 4289671738
34.678898 1591.7615 760 4289279031
35.777981 1591.6349 759 4289410617
36.93211 1591.6349 759 4289476413
38.025688 1591.5083 758 4289673791
39.115597 1591.3816 757 4289999927
40.137615 1591.1284 755 4290263098
41.284405 1591.1284 755 4290263366
42.431194 1591.1284 755 4290592331
43.508255 1591.0018 754 4290461772
44.65321 1591.0018 754 4291251288
45.798164 1591.0018 754 4291186769
46.943119 1591.0018 754 4291713113
48.011009 1590.8752 753 4291384660
49.154129 1590.8752 753 4290463814
50.297249 1590.8752 753 4290463823
51.440369 1590.8752 753 4291055960
52.583485 1590.8752 753 4290273889
53.726604 1590.8752 753 4294024090
54.869724 1590.8752 753 4292126126
56.102753 1591.0018 754 4292323505
57.247707 1591.0018 754 4291280838
58.392662 1591.0018 754 4294967295
59.537613 1591.0018 754 4294967295
60.682568 1591.0018 754 4294967295
61.926605 1591.1284 755 4294967295
63.27523 1591.3816 757 4294967295
64.42569 1591.3816 757 4294967295
65.680733 1591.5083 758 4294967295
66.833031 1591.5083 758 4294967295
68.093575 1591.6349 759 4294967295
69.357796 1591.7615 760 4294967295
70.625687 1591.8881 761 4294967295
71.783485 1591.8881 761 4294967295
73.056877 1592.0146 762 4294967295
74.451378 1592.2679 764 4294967295
75.733948 1592.3945 765 4294967295
77.625687 1593.1542 771 4294967295
78.801834 1593.1542 771 4294967295
79.977982 1593.1542 771 4294967295
81.154129 1593.1542 771 4294967295
23.559633 1592.1028 772 4287770409
24.699083 1591.978 771 4287836203
25.834862 1591.8533 770 4287967021
26.92477 1591.6036 768 4287900971
28.095413 1591.6036 768 4288555826
29.174313 1591.3541 766 4288621619
30.341284 1591.3541 766 4288882479
31.26055 1590.7302 761 4289145394
32.366974 1590.6055 760 4289014819
33.522934 1590.6055 760 4289738285
34.678898 1590.6055 760 4289345839
35.834862 1590.6055 760 4289148717
36.93211 1590.4807 759 4289475642
38.086239 1590.4807 759 4289739071
39.115597 1590.2312 757 4290066233
40.266056 1590.2312 757 4290198075
41.416515 1590.2312 757 4290329143
42.566971 1590.2312 757 4290855487
43.57798 1589.9817 755 4290658887
44.72477 1589.9817 755 4291251025
45.871559 1589.9817 755 4291187278
47.018349 1589.9817 755 4291516243
48.165138 1589.9817 755 4291318868
49.233028 1589.8569 754 4290726731
50.377983 1589.8569 754 4290463560
51.522934 1589.8569 754 4291515991
52.667889 1589.8569 754 4290670469
53.812843 1589.8569 754 4293367982
54.957798 1589.8569 754 4291995805
56.102753 1589.8569 754 4292127391
57.339451 1589.9817 755 4291280586
58.48624 1589.9817 755 4294967295
59.633026 1589.9817 755 4294967295
60.974312 1590.2312 757 4294967295
62.124771 1590.2312 757 4294967295
63.376148 1590.356 758 4294967295
64.528442 1590.356 758 4294967295
65.785324 1590.4807 759 4294967295
67.045868 1590.6055 760 4294967295
68.201836 1590.6055 760 4294967295
69.357796 1590.6055 760 4294967295
70.625687 1590.7302 761 4294967295
71.897247 1590.8551 762 4294967295
73.056877 1590.8551 762 4294967295
74.451378 1591.1046 764 4294967295
75.733948 1591.2294 765 4294967295
76.899086 1591.2294 765 4294967295
78.801834 1591.978 771 4294967295
79.977982 1591.978 771 4294967295
16.799999 1592.4 784 4286394415
18 1592.4 784 4286394415
19.170643 1592.2771 783 4286918444
20.337614 1592.1542 782 4286984237
21.533945 1592.1542 782 4287311403
23.559633 1590.9248 772 4287441193
24.737616 1590.9248 772 4287704364
25.875229 1590.8019 771 4288161583
27.009174 1590.679 770 4288029998
28.183487 1590.679 770 4288555313
29.266054 1590.433 768 4289344828
30.436697 1590.433 768 4289146930
31.557798 1590.3101 767 4289212723
32.41835 1589.5725 761 4289411371
33.576145 1589.5725 761 4289411371
34.678898 1589.4496 760 4289411884
35.834862 1589.4496 760 4289411884
36.990826 1589.4496 760 4289673791
38.086239 1589.3267 759 4289871170
39.240368 1589.3267 759 4290132795
40.394497 1589.3267 759 4290659139
41.482571 1589.2036 758 4290527551
42.634861 1589.2036 758 4290790724
43.71743 1589.0807 757 4290592844
44.867889 1589.0807 757 4290790224
46.018349 1589.0807 757 4291252560
47.168808 1589.0807 757 4291449938
48.319267 1589.0807 757 4291056210
49.469727 1589.0807 757 4290464073
50.458717 1588.8348 755 4290398532
51.605503 1588.8348 755 4294082940
52.752293 1588.8348 755 4293109925
53.899082 1588.8348 755 4292386202
55.045872 1588.8348 755 4291075207
56.192661 1588.8348 755 4292456860
57.339451 1588.8348 755 4292004057
58.673393 1589.0807 757 4294967295
59.823853 1589.0807 757 4294967295
60.974312 1589.0807 757 4294967295
62.223854 1589.2036 758 4294967295
63.477066 1589.3267 759 4294967295
64.631195 1589.3267 759 4294967295
65.889908 1589.4496 760 4294967295
67.045868 1589.4496 760 4294967295
68.310089 1589.5725 761 4294967295
69.467888 1589.5725 761 4294967295
70.737617 1589.6954 762 4294967295
71.897247 1589.6954 762 4294967295
73.288071 1589.9413 764 4294967295
74.56881 1590.0642 765 4294967295
76.899086 1590.0642 765 4294967295
16.902752 1591.6844 788 4286460208
18.027523 1591.321 785 4286591537
19.229359 1591.321 785 4287114542
20.4 1591.2 784 4287180335
21.566973 1591.0789 783 4287311403
22.730276 1590.9578 782 4287377196
23.85321 1590.7156 780 4287639337
24.776146 1589.8679 773 4287639337
25.915596 1589.7468 772 4287966519
27.051376 1589.6257 771 4287900469
28.183487 1589.5046 770 4288424237
29.357798 1589.5046 770 4288687666
30.436697 1589.2623 768 4288883762
31.557798 1589.1412 767 4288883762
32.675228 1589.0201 766 4289475642
33.576145 1588.4147 761 4289607229
34.733944 1588.4147 761 4289609527
35.834862 1588.2936 760 4289412405
36.990826 1588.2936 760 4289608768
38.14679 1588.2936 760 4289674561
39.240368 1588.1725 759 4289870135
40.458717 1588.2936 760 4290462528
41.548622 1588.1725 759 4290463041
42.634861 1588.0514 758 4290463041
43.71743 1587.9303 757 4290658626
44.867889 1587.9303 757 4291184970
46.018349 1587.9303 757 4291449425
47.168808 1587.9303 757 4291383376
48.319267 1587.9303 757 4290792522
49.469727 1587.9303 757 4290595143
50.620182 1587.9303 757 4289744994
51.770641 1587.9303 757 4294942899
52.921101 1587.9303 757 4293310652
54.07156 1587.9303 757 4290218381
55.222019 1587.9303 757 4290344026
56.372478 1587.9303 757 4293765518
57.522934 1587.9303 757 4292464858
58.673393 1587.9303 757 4294967295
59.919266 1588.0514 758 4294967295
61.07156 1588.0514 758 4294967295
62.322937 1588.1725 759 4294967295
63.57798 1588.2936 760 4294967295
64.733948 1588.2936 760 4294967295
65.994499 1588.4147 761 4294967295
67.15229 1588.4147 761 4294967295
68.310089 1588.4147 761 4294967295
69.57798 1588.5358 762 4294967295
70.737617 1588.5358 762 4294967295
72.124771 1588.778 764 4294967295
73.519264 1589.0201 766 4294967295
74.803673 1589.1412 767 4294967295
15.719266 1590.5963 789 4286264373
16.902752 1590.4771 788 4286591537
18.082569 1590.3578 787 4286394415
19.229359 1590.1193 785 4287048747
20.4 1590 784 4287114540
21.6 1590 784 4287245358
22.765137 1589.8807 783 4287376944
23.926605 1589.7615 782 4287573544
24.930275 1589.1652 777 4287639337
25.955963 1588.6881 773 4288161598
27.093578 1588.5688 772 4288161598
28.227524 1588.4496 771 4288489267
29.403669 1588.4496 771 4288620854
30.53211 1588.3303 770 4288882229
31.60734 1588.0918 768 4288948022
32.726604 1587.9725 767 4289342778
33.78899 1587.7339 765 4289605949
34.733944 1587.2568 761 4289409084
35.891743 1587.2568 761 4289935428
37.049541 1587.2568 761 4289936443
38.14679 1587.1376 760 4289936443
39.365139 1587.2568 761 4289937214
40.458717 1587.1376 760 4290397764
41.548622 1587.0183 759 4290463812
42.770641 1587.1376 760 4290398018
43.787155 1586.899 758 4290791239
44.939449 1586.899 758 4291317583
46.091743 1586.899 758 4291383889
47.244038 1586.899 758 4290923338
48.396332 1586.899 758 4290398018
49.548622 1586.899 758 4292963689
50.781651 1587.0183 759 4293241248
51.85321 1586.899 758 4294820279
53.005505 1586.899 758 4293570976
54.157799 1586.899 758 4289689446
55.310093 1586.899 758 4289818217
56.462387 1586.899 758 4293634211
57.614677 1586.899 758 4292597463
58.766972 1586.899 758 4294967295
59.919266 1586.899 758 4294967295
61.168808 1587.0183 759 4294967295
62.322937 1587.0183 759 4294967295
63.57798 1587.1376 760 4294967295
64.8367 1587.2568 761 4294967295
66.099083 1587.3761 762 4294967295
67.471558 1587.6146 764 4294967295
68.634865 1587.6146 764 4294967295
69.798164 1587.6146 764 4294967295
71.073395 1587.7339 765 4294967295
72.238533 1587.7339 765 4294967295
73.634865 1587.9725 767 4294967295
16.92844 1589.3872 789 4286853684
18.082569 1589.1523 787 4286721842
19.288073 1589.1523 787 4287114542
20.431192 1588.9175 785 4287114542
21.6 1588.8 784 4287311403
22.765137 1588.6826 783 4287377196
23.926605 1588.5652 782 4287770409
24.968807 1588.0955 778 4287770409
26.077065 1587.8606 776 4288293169
27.13578 1587.5083 773 4288293169
28.271559 1587.3909 772 4288555313
29.449541 1587.3909 772 4288621106
30.579817 1587.2734 771 4288948785
31.706423 1587.156 770 4288948785
32.777981 1586.9211 768 4289538355
33.895412 1586.8037 767 4289735991
35.009174 1586.6863 766 4289343529
36.119267 1586.5688 765 4290198838
37.049541 1586.0991 761 4289936443
38.20734 1586.0991 761 4290134079
39.427525 1586.2166 762 4290135614
40.522934 1586.0991 761 4290201407
41.680733 1586.0991 761 4290463812
42.838531 1586.0991 761 4290332225
43.926605 1585.9817 760 4290726468
45.082569 1585.9817 760 4291252812
46.238533 1585.9817 760 4291186765
47.394497 1585.9817 760 4291055179
48.550457 1585.9817 760 4290006363
49.706421 1585.9817 760 4294151322
50.862385 1585.9817 760 4293441734
51.93578 1585.8643 759 4291599530
53.089909 1585.8643 759 4292382593
54.244038 1585.8643 759 4290803817
55.398167 1585.8643 759 4289949803
56.552292 1585.8643 759 4294423471
57.706421 1585.8643 759 4292926946
58.86055 1585.8643 759 4294967295
60.014679 1585.8643 759 4294967295
61.266056 1585.9817 760 4294967295
62.521099 1586.0991 761 4294967295
63.779816 1586.2166 762 4294967295
65.144951 1586.4514 764 4294967295
66.412842 1586.5688 765 4294967295
67.57798 1586.5688 765 4294967295
68.743118 1586.5688 765 4294967295
70.018349 1586.6863 766 4294967295
71.185318 1586.6863 766 4294967295
72.466057 1586.8037 767 4294967295
18.082569 1587.9468 787 4286459176
19.288073 1587.9468 787 4286982700
20.431192 1587.7156 785 4287246128
21.6 1587.6 784 4287311403
22.765137 1587.4844 783 4287311403
23.926605 1587.3688 782 4287573805
25.007339 1587.022 779 4287705648
26.117432 1586.7908 777 4288162099
27.262384 1586.6753 776 4288293685
28.359632 1586.4441 774 4288490033
29.495413 1586.3285 773 4288621619
30.579817 1586.0973 771 4289080373
31.755962 1586.0973 771 4289409338
32.880733 1585.9817 770 4289345326
33.948624 1585.7505 768 4289477168
35.06422 1585.6349 767 4289409084
36.176147 1585.5193 766 4290395979
