# .PCD v0.7 - Point Cloud Data file format
VERSION 0.7
FIELDS x y z rgb
SIZE 4 4 4 4
TYPE F F F U
COUNT 1 1 1 1
WIDTH 1379
HEIGHT 1
VIEWPOINT 0 0 0 1 0 0 0
POINTS 1379
DATA ascii
63.85321 1638.6055 730 4294770687
64.954132 1638.6055 730 4294836223
66.165138 1638.8165 731 4294705151
67.267891 1638.8165 731 4294836223
68.256882 1638.6055 730 4294901759
69.357796 1638.6055 730 4294967295
70.458717 1638.6055 730 4294770687
71.559631 1638.6055 730 4294574079
72.660553 1638.6055 730 4294443007
73.761467 1638.6055 730 4294443007
74.862389 1638.6055 730 4294574079
76.089905 1638.8165 731 4294705151
77.449539 1639.2385 733 4294770687
78.555962 1639.2385 733 4294901759
79.662384 1639.2385 733 4294639615
81.84037 1640.9266 741 4294639615
82.961472 1640.9266 741 4294770687
84.082565 1640.9266 741 4294901759
85.343117 1641.1376 742 4294770687
86.466057 1641.1376 742 4294770687
24.583487 1639.3872 739 4283189830
25.700918 1639.3872 739 4283124037
26.774311 1639.178 738 4282202926
27.844036 1638.9688 737 4281742375
28.910091 1638.7596 736 4283385177
29.922935 1638.3413 734 4286543240
30.979816 1638.1321 733 4290879918
32.086239 1638.1321 733 4294169568
33.192661 1638.1321 733 4291224551
34.299084 1638.1321 733 4289842898
35.288074 1637.7137 731 4286425275
36.390827 1637.7137 731 4285372331
37.431194 1637.5046 730 4286677627
38.532108 1637.5046 730 4288125329
39.633026 1637.5046 730 4288057538
40.733944 1637.5046 730 4286412713
41.834862 1637.5046 730 4285367693
42.93578 1637.5046 730 4285696658
43.963303 1637.2954 729 4284774802
45.062386 1637.2954 729 4285169560
46.238533 1637.5046 730 4286219668
47.339451 1637.5046 730 4286219668
48.440369 1637.5046 730 4285497228
49.458717 1637.2954 729 4285563021
50.557796 1637.2954 729 4285495958
51.656879 1637.2954 729 4283587961
52.844036 1637.5046 730 4282600777
53.855045 1637.2954 729 4284640361
54.954128 1637.2954 729 4288840353
56.053211 1637.2954 729 4288248216
57.056881 1637.0862 728 4288109878
58.251377 1637.2954 729 4293768076
59.35046 1637.2954 729 4293979635
60.449543 1637.2954 729 4294967295
61.548622 1637.2954 729 4294836223
62.647705 1637.2954 729 4294836223
63.746788 1637.2954 729 4294836223
64.954132 1637.5046 730 4294770687
66.055046 1637.5046 730 4294377471
67.15596 1637.5046 730 4294574079
68.256882 1637.5046 730 4294705151
69.357796 1637.5046 730 4294901759
70.458717 1637.5046 730 4294443007
71.559631 1637.5046 730 4294508543
72.660553 1637.5046 730 4294705151
73.761467 1637.5046 730 4294705151
74.862389 1637.5046 730 4294443007
75.963303 1637.5046 730 4294639615
77.449539 1638.1321 733 4294639615
78.555962 1638.1321 733 4294770687
79.794495 1638.3413 734 4294770687
81.304588 1638.9688 737 4294836223
82.961472 1639.8055 741 4294836223
84.082565 1639.8055 741 4294836223
85.343117 1640.0146 742 4294770687
86.466057 1640.0146 742 4294770687
24.583487 1638.2698 739 4294967281
25.700918 1638.2698 739 4294967284
26.774311 1638.0624 738 4294836223
27.844036 1637.8551 737 4293389033
28.910091 1637.6477 736 4292794602
29.922935 1637.233 734 4291478998
30.979816 1637.0256 733 4288586171
32.086239 1637.0256 733 4287862192
33.137615 1636.8184 732 4290034580
34.242203 1636.8184 732 4292468664
35.288074 1636.611 731 4294376187
36.330276 1636.4037 730 4294376187
37.431194 1636.4037 730 4294705151
38.532108 1636.4037 730 4294967295
39.633026 1636.4037 730 4289310966
40.666054 1636.1963 729 4286415818
41.834862 1636.4037 730 4286155673
42.86422 1636.1963 729 4286747810
43.963303 1636.1963 729 4286023338
45.062386 1636.1963 729 4285825959
45.930275 1635.5743 726 4284510599
47.023853 1635.5743 726 4283918461
48.117432 1635.5743 726 4284115325
49.21101 1635.5743 726 4285825943
50.304588 1635.5743 726 4285956502
51.656879 1636.1963 729 4282666852
52.755962 1636.1963 729 4284439397
53.765137 1635.989 728 4288781736
54.862385 1635.989 728 4290613923
55.959633 1635.989 728 4287850617
57.056881 1635.989 728 4288697683
58.154129 1635.989 728 4292053126
59.35046 1636.1963 729 4291411656
60.449543 1636.1963 729 4294967295
61.445873 1635.989 728 4294967295
62.647705 1636.1963 729 4294967295
63.746788 1636.1963 729 4294770687
64.845871 1636.1963 729 4294705151
66.055046 1636.4037 730 4294705151
67.15596 1636.4037 730 4294901759
68.256882 1636.4037 730 4294967295
69.357796 1636.4037 730 4294967295
70.458717 1636.4037 730 4294705151
71.559631 1636.4037 730 4294639615
72.660553 1636.4037 730 4294836223
73.761467 1636.4037 730 4294967295
74.862389 1636.4037 730 4294967295
76.089905 1636.611 731 4294967295
77.449539 1637.0256 733 4294574079
78.555962 1637.0256 733 4294705151
80.058716 1637.6477 736 4294705151
81.43853 1638.0624 738 4294770687
82.961472 1638.6844 741 4294770687
84.082565 1638.6844 741 4294705151
85.343117 1638.8917 742 4294836223
86.466057 1638.8917 742 4294836223
24.583487 1637.1523 739 4294967295
25.700918 1637.1523 739 4294967295
26.774311 1636.9468 738 4294967295
27.844036 1636.7413 737 4293982969
28.910091 1636.5358 736 4293784318
29.922935 1636.1248 734 4290099910
30.979816 1635.9193 733 4285504925
32.086239 1635.9193 733 4285899683
33.137615 1635.7137 732 4290226855
34.185322 1635.5083 731 4293845214
35.288074 1635.5083 731 4294967295
36.330276 1635.3027 730 4294507775
37.431194 1635.3027 730 4294443007
38.532108 1635.3027 730 4293062641
39.566971 1635.0973 729 4286691551
40.666054 1635.0973 729 4284191416
41.765137 1635.0973 729 4285170062
42.79266 1634.8917 728 4285630613
43.889908 1634.8917 728 4285892254
44.911926 1634.6863 727 4285168274
45.930275 1634.4807 726 4283525750
47.023853 1634.4807 726 4283394164
48.117432 1634.4807 726 4284115321
49.21101 1634.4807 726 4285826195
50.304588 1634.4807 726 4286153623
51.398167 1634.4807 726 4284245625
52.579815 1634.6863 727 4286538627
53.765137 1634.8917 728 4289630898
54.862385 1634.8917 728 4291136412
55.959633 1634.8917 728 4288307313
57.056881 1634.8917 728 4289220415
58.154129 1634.8917 728 4290865497
59.251377 1634.8917 728 4290420373
60.348625 1634.8917 728 4294965231
61.445873 1634.8917 728 4294967295
62.543118 1634.8917 728 4294967295
63.640366 1634.8917 728 4294770687
64.845871 1635.0973 729 4294639615
65.944954 1635.0973 729 4294705151
67.044037 1635.0973 729 4294901759
68.14312 1635.0973 729 4294705151
69.242203 1635.0973 729 4294901759
70.341286 1635.0973 729 4294705151
71.559631 1635.3027 730 4294770687
72.539452 1635.0973 729 4294836223
73.761467 1635.3027 730 4294967295
74.862389 1635.3027 730 4294967295
76.216515 1635.7137 732 4294836223
77.449539 1635.9193 733 4294443007
78.555962 1635.9193 733 4294639615
80.190826 1636.7413 737 4294770687
81.572479 1637.1523 739 4294770687
82.961472 1637.5634 741 4294770687
84.082565 1637.5634 741 4294836223
85.343117 1637.7688 742 4294967295
86.466057 1637.7688 742 4294967295
23.466055 1636.0349 739 4288978597
24.543119 1635.8312 738 4294967255
25.658716 1635.8312 738 4294967261
26.730276 1635.6276 737 4294967290
27.844036 1635.6276 737 4289244576
28.910091 1635.4238 736 4286286258
29.922935 1635.0165 734 4283128194
30.979816 1634.8129 733 4282409056
32.086239 1634.8129 733 4285632657
33.137615 1634.6091 732 4287925938
34.185322 1634.4055 731 4288057524
35.288074 1634.4055 731 4285429386
36.330276 1634.2018 730 4282139736
37.431194 1634.2018 730 4279786338
38.532108 1634.2018 730 4280115303
39.566971 1633.9982 729 4281686630
40.598164 1633.7944 728 4282410097
41.695412 1633.7944 728 4283918198
42.7211 1633.5908 727 4284312956
43.816513 1633.5908 727 4284115323
44.836697 1633.3872 726 4283391856
45.85321 1633.1835 725 4283194975
46.944954 1633.1835 725 4285366400
48.036697 1633.1835 725 4285956502
49.128441 1633.1835 725 4285956502
50.220184 1633.1835 725 4286743447
51.311928 1633.1835 725 4288190893
52.491745 1633.3872 726 4290352291
53.58532 1633.3872 726 4288707722
54.678898 1633.3872 726 4288891480
55.772476 1633.3872 726 4287049276
56.866055 1633.3872 726 4288159805
57.959633 1633.3872 726 4291383406
59.152294 1633.5908 727 4287128202
60.247707 1633.5908 727 4294497018
61.240368 1633.3872 726 4294967295
62.438534 1633.5908 727 4294967295
63.640366 1633.7944 728 4294967295
64.737617 1633.7944 728 4294770687
65.834862 1633.7944 728 4294705151
66.932114 1633.7944 728 4294901759
68.14312 1633.9982 729 4294770687
69.242203 1633.9982 729 4294836223
70.341286 1633.9982 729 4294770687
71.559631 1634.2018 730 4294901759
72.660553 1634.2018 730 4294836223
73.761467 1634.2018 730 4294836223
74.98716 1634.4055 731 4294836223
76.216515 1634.6091 732 4294770687
77.449539 1634.8129 733 4294443007
78.686241 1635.0165 734 4294770687
80.190826 1635.6276 737 4294705151
81.572479 1636.0349 739 4294705151
82.825691 1636.2385 740 4294705151
84.082565 1636.4421 741 4294836223
85.343117 1636.6459 742 4294967295
86.466057 1636.6459 742 4294967295
24.543119 1634.7156 738 4291414979
25.658716 1634.7156 738 4292072653
26.730276 1634.5138 737 4291414485
27.844036 1634.5138 737 4287335575
28.910091 1634.3119 736 4285234571
29.922935 1633.9082 734 4282997609
30.979816 1633.7064 733 4282472267
32.086239 1633.7064 733 4284117349
33.137615 1633.5046 732 4286021012
34.242203 1633.5046 732 4283915379
35.288074 1633.3027 731 4283322214
36.330276 1633.101 730 4283124834
37.431194 1633.101 730 4282928736
38.532108 1633.101 730 4283389287
39.500916 1632.6973 728 4283718755
40.530273 1632.4954 727 4284113513
41.625687 1632.4954 727 4284310385
42.64954 1632.2936 726 4284179056
43.743118 1632.2936 726 4284112733
44.761467 1632.0918 725 4284178526
45.85321 1632.0918 725 4284047731
46.944954 1632.0918 725 4286219157
48.036697 1632.0918 725 4288058539
49.128441 1632.0918 725 4287335073
50.220184 1632.0918 725 4287070368
51.311928 1632.0918 725 4288583350
52.403671 1632.0918 725 4291402153
53.495415 1632.0918 725 4288046454
54.678898 1632.2936 726 4288886322
55.678898 1632.0918 725 4287833634
56.770641 1632.0918 725 4288684823
57.862385 1632.0918 725 4289803047
59.053211 1632.2936 726 4288568916
60.14679 1632.2936 726 4294951865
61.240368 1632.2936 726 4293850363
62.333946 1632.2936 726 4294967295
63.533943 1632.4954 727 4294967295
64.629356 1632.4954 727 4294770687
65.72477 1632.4954 727 4294639615
66.820183 1632.4954 727 4294705151
68.029358 1632.6973 728 4294705151
69.242203 1632.899 729 4294770687
70.341286 1632.899 729 4294443007
71.559631 1633.101 730 4294639615
72.660553 1633.101 730 4294508543
73.761467 1633.101 730 4294443007
74.862389 1633.101 730 4294770687
76.216515 1633.5046 732 4294639615
77.449539 1633.7064 733 4294443007
78.686241 1633.9082 734 4294639615
80.190826 1634.5138 737 4294705151
81.572479 1634.9175 739 4294770687
82.825691 1635.1193 740 4294574079
83.944954 1635.1193 740 4294574079
85.203667 1635.321 741 4294574079
86.466057 1635.5229 742 4294639615
23.466055 1633.8 739 4284638046
24.583487 1633.8 739 4286545539
25.658716 1633.6 738 4287006090
26.730276 1633.4 737 4285036929
27.844036 1633.4 737 4282734174
28.910091 1633.2 736 4283324766
29.922935 1632.8 734 4283785317
30.979816 1632.6 733 4283850340
32.086239 1632.6 733 4284113513
33.137615 1632.4 732 4283786864
34.242203 1632.4 732 4283786864
35.288074 1632.2 731 4284245362
36.330276 1632 730 4284377205
37.431194 1632 730 4284507769
38.532108 1632 730 4284376182
39.500916 1631.6 728 4283981926
40.598164 1631.6 728 4283455582
41.625687 1631.4 727 4282929257
42.64954 1631.2 726 4282863463
43.743118 1631.2 726 4283980143
44.761467 1631 725 4289111997
45.85321 1631 725 4290756291
46.944954 1631 725 4291085256
48.036697 1631 725 4291018697
49.128441 1631 725 4289834424
50.13578 1630.8 724 4289629363
51.225689 1630.8 724 4287655573
52.315598 1630.8 724 4288693588
53.495415 1631 725 4287311935
54.587154 1631 725 4289208085
55.678898 1631 725 4288615947
56.770641 1631 725 4288745260
57.862385 1631 725 4290587463
59.053211 1631.2 726 4287908930
60.045872 1631 725 4293896093
61.137615 1631 725 4293651700
62.333946 1631.2 726 4294967295
63.427525 1631.2 726 4294967295
64.629356 1631.4 727 4294967295
65.72477 1631.4 727 4294770687
66.820183 1631.4 727 4294705151
68.029358 1631.6 728 4294770687
69.242203 1631.8 729 4294967295
70.458717 1632 730 4294967295
71.559631 1632 730 4294967295
72.660553 1632 730 4294639615
73.884407 1632.2 731 4294443007
74.862389 1632 730 4294836223
76.216515 1632.4 732 4294836223
77.449539 1632.6 733 4294574079
78.555962 1632.6 733 4294639615
80.190826 1633.4 737 4294836223
81.43853 1633.6 738 4294836223
82.689911 1633.8 739 4294705151
83.944954 1634 740 4294901759
85.203667 1634.2 741 4294901759
23.504587 1632.8807 740 4284572001
24.583487 1632.6826 739 4284248948
25.658716 1632.4844 738 4283788397
26.774311 1632.4844 738 4284377455
27.844036 1632.2863 737 4283653475
28.910091 1632.0881 736 4284112229
29.922935 1631.6918 734 4284506987
30.979816 1631.4935 733 4284572780
32.086239 1631.4935 733 4284704623
33.192661 1631.4935 733 4284245362
34.242203 1631.2954 732 4284377205
35.34679 1631.2954 732 4284574329
36.330276 1630.899 730 4284376951
37.431194 1630.899 730 4284572530
38.532108 1630.899 730 4284111979
39.566971 1630.7009 729 4283127623
40.598164 1630.5028 728 4283390539
41.625687 1630.3046 727 4283915631
42.64954 1630.1064 726 4285560457
43.743118 1630.1064 726 4288058235
44.761467 1629.9082 725 4291676850
45.85321 1629.9082 725 4293977849
46.944954 1629.9082 725 4291082957
48.036697 1629.9082 725 4290886094
49.128441 1629.9082 725 4289504441
50.13578 1629.7101 724 4289889693
51.225689 1629.7101 724 4287257973
52.315598 1629.7101 724 4289407528
53.495415 1629.9082 725 4289407528
54.587154 1629.9082 725 4290061345
55.678898 1629.9082 725 4289271572
56.770641 1629.9082 725 4289400082
57.862385 1629.9082 725 4290058013
58.954128 1629.9082 725 4288166712
60.045872 1629.9082 725 4294811805
61.137615 1629.9082 725 4292992749
62.229359 1629.9082 725 4294967295
63.427525 1630.1064 726 4294967295
64.521103 1630.1064 726 4294967295
65.614677 1630.1064 726 4294770687
66.820183 1630.3046 727 4294770687
68.14312 1630.7009 729 4294770687
69.126602 1630.5028 728 4294967295
70.341286 1630.7009 729 4294967295
71.559631 1630.899 730 4294967295
72.660553 1630.899 730 4294901759
73.884407 1631.0973 731 4294705151
74.862389 1630.899 730 4294967295
76.216515 1631.2954 732 4294967295
77.321098 1631.2954 732 4294639615
78.555962 1631.4935 733 4294639615
80.058716 1632.0881 736 4294967295
81.43853 1632.4844 738 4294901759
82.554131 1632.4844 738 4294770687
83.944954 1632.8807 740 4294967295
85.203667 1633.0789 741 4294901759
24.583487 1631.5652 739 4283390559
25.658716 1631.3688 738 4283192924
26.730276 1631.1725 737 4283324764
27.844036 1631.1725 737 4283719522
28.910091 1630.9762 736 4284111979
29.922935 1630.5835 734 4284177772
30.979816 1630.3872 733 4284177772
32.086239 1630.3872 733 4284243566
33.137615 1630.1908 732 4284047470
34.242203 1630.1908 732 4284047470
35.229359 1629.7982 730 4283849838
36.330276 1629.7982 730 4283455080
37.431194 1629.7982 730 4283585383
38.532108 1629.7982 730 4284769914
39.566971 1629.6018 729 4288320101
40.598164 1629.4055 728 4292793768
41.625687 1629.2092 727 4294967287
42.64954 1629.0128 726 4294967286
43.743118 1629.0128 726 4294836217
44.836697 1629.0128 726 4294967295
45.85321 1628.8165 725 4293978353
46.944954 1628.8165 725 4289043879
48.036697 1628.8165 725 4288309912
49.128441 1628.8165 725 4285875571
50.220184 1628.8165 725 4288095262
51.311928 1628.8165 725 4288161055
52.403671 1628.8165 725 4289470491
53.495415 1628.8165 725 4289931042
54.587154 1628.8165 725 4290192674
55.678898 1628.8165 725 4289863965
56.770641 1628.8165 725 4289533478
57.862385 1628.8165 725 4289599272
58.954128 1628.8165 725 4287508283
60.045872 1628.8165 725 4294548134
61.137615 1628.8165 725 4292663786
62.229359 1628.8165 725 4294967295
63.427525 1629.0128 726 4294967295
64.521103 1629.0128 726 4294967295
65.614677 1629.0128 726 4294770687
66.820183 1629.2092 727 4294770687
67.915596 1629.2092 727 4294770687
69.242203 1629.6018 729 4294967295
70.341286 1629.6018 729 4294967295
71.559631 1629.7982 730 4294967295
72.660553 1629.7982 730 4294770687
73.884407 1629.9945 731 4294574079
75.111923 1630.1908 732 4294967295
76.216515 1630.1908 732 4294967295
77.321098 1630.1908 732 4294836223
78.555962 1630.3872 733 4294901759
79.794495 1630.5835 734 4294967295
81.304588 1631.1725 737 4294705151
82.41835 1631.1725 737 4294639615
83.807343 1631.5652 739 4294901759
85.343117 1632.1542 742 4294967295
23.504587 1630.6422 740 4283849838
24.623854 1630.6422 740 4283849312
25.700918 1630.4478 739 4283783519
26.774311 1630.2532 738 4283389013
27.844036 1630.0587 737 4283783770
28.910091 1629.8643 736 4283980641
29.922935 1629.4752 734 4284046434
30.979816 1629.2808 733 4283980643
32.086239 1629.2808 733 4284112229
33.137615 1629.0862 732 4284244321
34.185322 1628.8917 731 4284112479
35.229359 1628.6973 730 4283783519
36.330276 1628.6973 730 4284178276
37.431194 1628.6973 730 4285097087
38.467892 1628.5028 729 4286412947
39.566971 1628.5028 729 4291273663
40.598164 1628.3082 728 4294694642
41.625687 1628.1138 727 4294967295
42.64954 1627.9193 726 4294967295
43.743118 1627.9193 726 4294967295
44.836697 1627.9193 726 4293653493
45.930275 1627.9193 726 4290035412
47.023853 1627.9193 726 4287272106
48.036697 1627.7247 725 4288828769
49.128441 1627.7247 725 4286460221
50.220184 1627.7247 725 4289662739
51.398167 1627.9193 726 4290254876
52.403671 1627.7247 725 4290126368
53.495415 1627.7247 725 4290324003
54.587154 1627.7247 725 4290257956
55.678898 1627.7247 725 4290060576
56.770641 1627.7247 725 4289663518
57.959633 1627.9193 726 4288676623
59.053211 1627.9193 726 4287571257
60.045872 1627.7247 725 4294943156
61.240368 1627.9193 726 4292532200
62.333946 1627.9193 726 4294967295
63.427525 1627.9193 726 4294967295
64.521103 1627.9193 726 4294967295
65.72477 1628.1138 727 4294770687
66.820183 1628.1138 727 4294770687
68.029358 1628.3082 728 4294639615
69.242203 1628.5028 729 4294836223
70.458717 1628.6973 730 4294574079
71.559631 1628.6973 730 4294574079
72.781654 1628.8917 731 4294770687
74.007339 1629.0862 732 4294574079
75.111923 1629.0862 732 4294770687
76.343117 1629.2808 733 4294836223
77.449539 1629.2808 733 4294705151
78.686241 1629.4752 734 4294770687
80.058716 1629.8643 736 4294770687
80.902756 1629.4752 734 4294770687
82.011009 1629.4752 734 4294836223
83.807343 1630.4478 739 4294901759
23.543119 1629.7156 741 4288122788
24.623854 1629.5229 740 4287859600
25.700918 1629.3303 739 4287859600
26.774311 1629.1376 738 4287662991
27.889908 1629.1376 738 4287597198
28.957798 1628.9449 737 4287859854
29.922935 1628.3669 734 4288320405
31.031193 1628.3669 734 4288713883
32.086239 1628.1743 733 4288977054
33.137615 1627.9817 732 4290031005
34.185322 1627.7889 731 4290096798
35.229359 1627.5963 730 4291676085
36.330276 1627.5963 730 4292728516
37.368809 1627.4037 729 4292465126
38.467892 1627.4037 729 4293386228
39.500916 1627.2111 728 4293648383
40.598164 1627.2111 728 4293516798
41.625687 1627.0183 727 4290030061
42.7211 1627.0183 727 4288516822
43.743118 1626.8257 726 4287200925
44.836697 1626.8257 726 4284568948
45.930275 1626.8257 726 4286785850
47.023853 1626.8257 726 4284943646
48.117432 1626.8257 726 4288548869
49.21101 1626.8257 726 4289930522
50.304588 1626.8257 726 4289929507
51.398167 1626.8257 726 4289929507
52.491745 1626.8257 726 4290126118
53.58532 1626.8257 726 4290126118
54.678898 1626.8257 726 4290323749
55.772476 1626.8257 726 4290323749
56.866055 1626.8257 726 4289730860
57.959633 1626.8257 726 4288020498
59.053211 1626.8257 726 4286520645
60.14679 1626.8257 726 4294944975
61.240368 1626.8257 726 4293454324
62.333946 1626.8257 726 4294967295
63.427525 1626.8257 726 4294967295
64.629356 1627.0183 727 4294967295
65.72477 1627.0183 727 4294967295
66.932114 1627.2111 728 4294967295
68.14312 1627.4037 729 4294901759
69.357796 1627.5963 730 4294901759
70.458717 1627.5963 730 4294770687
71.559631 1627.5963 730 4294639615
72.781654 1627.7889 731 4294836223
73.884407 1627.7889 731 4294770687
75.111923 1627.9817 732 4294770687
76.343117 1628.1743 733 4294967295
77.449539 1628.1743 733 4294770687
78.555962 1628.1743 733 4294705151
79.794495 1628.3669 734 4294770687
80.902756 1628.3669 734 4294836223
82.011009 1628.3669 734 4294836223
83.119263 1628.3669 734 4294901759
20.344954 1629.5486 746 4285617750
21.440367 1629.3578 745 4287394161
22.53211 1629.167 744 4286872707
23.581652 1628.7853 742 4287596431
24.664221 1628.5945 741 4288514450
25.74312 1628.4037 740 4288448657
26.818348 1628.2129 739 4288976537
27.889908 1628.022 738 4288515986
28.957798 1627.8312 737 4288712847
30.022018 1627.6404 736 4289041812
31.031193 1627.2587 734 4290291113
32.086239 1627.0679 733 4290291113
33.137615 1626.8771 732 4290490806
34.185322 1626.6863 731 4290425013
35.229359 1626.4954 730 4291742157
36.330276 1626.4954 730 4291939536
37.368809 1626.3046 729 4291873500
38.467892 1626.3046 729 4291742171
39.566971 1626.3046 729 4291741671
40.598164 1626.1138 728 4290886105
41.695412 1626.1138 728 4288910507
42.7211 1625.923 727 4286541959
43.743118 1625.7321 726 4289085280
44.836697 1625.7321 726 4287045696
45.930275 1625.7321 726 4289727013
47.023853 1625.7321 726 4289661219
48.117432 1625.7321 726 4289861651
49.21101 1625.7321 726 4290256409
50.304588 1625.7321 726 4290124321
51.398167 1625.7321 726 4290124321
52.491745 1625.7321 726 4290256670
53.58532 1625.7321 726 4290322720
54.678898 1625.7321 726 4290192674
55.772476 1625.7321 726 4290192674
56.866055 1625.7321 726 4289798439
57.959633 1625.7321 726 4287890441
59.053211 1625.7321 726 4285666103
60.14679 1625.7321 726 4294947286
61.240368 1625.7321 726 4293586685
62.333946 1625.7321 726 4294967295
63.533943 1625.923 727 4294967295
64.629356 1625.923 727 4294967295
65.72477 1625.923 727 4294639615
67.044037 1626.3046 729 4294836223
68.029358 1626.1138 728 4294901759
69.242203 1626.3046 729 4294901759
70.341286 1626.3046 729 4294836223
71.440369 1626.3046 729 4294901759
72.660553 1626.4954 730 4294967295
73.761467 1626.4954 730 4294901759
75.111923 1626.8771 732 4294574079
76.343117 1627.0679 733 4294901759
77.449539 1627.0679 733 4294967295
78.686241 1627.2587 734 4294967295
79.662384 1627.0679 733 4294967295
80.902756 1627.2587 734 4294967295
82.011009 1627.2587 734 4294901759
20.344954 1628.4183 746 4283761152
21.440367 1628.2294 745 4284221696
22.568808 1628.2294 745 4284357120
23.581652 1627.6624 742 4285344012
24.664221 1627.4734 741 4284558425
25.74312 1627.2844 740 4286400629
26.818348 1627.0955 739 4285944666
27.889908 1626.9064 738 4287194733
28.957798 1626.7174 737 4287720291
30.022018 1626.5284 736 4288180842
31.031193 1626.1505 734 4288378228
32.086239 1625.9614 733 4288575350
33.137615 1625.7725 732 4288442749
34.185322 1625.5835 731 4288113784
35.288074 1625.5835 731 4287783799
36.330276 1625.3945 730 4287126126
37.431194 1625.3945 730 4286598242
38.532108 1625.3945 730 4285743190
39.566971 1625.2056 729 4285868877
40.666054 1625.2056 729 4284487224
41.695412 1625.0165 728 4286649875
42.79266 1625.0165 728 4287570977
43.816513 1624.8275 727 4289406243
44.911926 1624.8275 727 4289998380
46.007339 1624.8275 727 4290389542
47.102753 1624.8275 727 4289797405
48.198166 1624.8275 727 4290320669
49.293579 1624.8275 727 4290320669
50.388992 1624.8275 727 4290056738
51.398167 1624.6385 726 4289925409
52.491745 1624.6385 726 4290057763
53.58532 1624.6385 726 4290584107
54.678898 1624.6385 726 4290323749
55.772476 1624.6385 726 4290521127
56.866055 1624.6385 726 4289800748
57.959633 1624.6385 726 4288419095
59.152294 1624.8275 727 4285802053
60.14679 1624.6385 726 4294951392
61.343121 1624.8275 727 4294441727
62.438534 1624.8275 727 4294967295
63.533943 1624.8275 727 4294967295
64.629356 1624.8275 727 4294967295
65.72477 1624.8275 727 4294967295
67.044037 1625.2056 729 4294967295
68.029358 1625.0165 728 4294770687
69.242203 1625.2056 729 4294705151
70.341286 1625.2056 729 4294770687
71.559631 1625.3945 730 4294901759
72.660553 1625.3945 730 4294967295
73.884407 1625.5835 731 4294967295
74.98716 1625.5835 731 4294836223
76.216515 1625.7725 732 4294967295
77.449539 1625.9614 733 4294967295
78.555962 1625.9614 733 4294901759
79.794495 1626.1505 734 4294967295
80.902756 1626.1505 734 4294967295
82.011009 1626.1505 734 4294901759
20.411009 1627.6624 748 4285726720
21.475229 1627.2881 746 4285989120
22.568808 1627.101 745 4285989376
23.697248 1627.101 745 4286055168
24.704588 1626.5394 742 4285205511
25.78532 1626.3523 741 4286587164
26.862385 1626.1652 740 4285604642
27.93578 1625.978 739 4286854966
29.005505 1625.7908 738 4286462522
30.022018 1625.4165 736 4286330680
31.031193 1625.0422 734 4287252785
32.086239 1624.8551 733 4287121456
33.192661 1624.8551 733 4287644220
34.242203 1624.6678 732 4287380792
35.288074 1624.4807 731 4288032062
36.330276 1624.2936 730 4287966013
37.431194 1624.2936 730 4288554811
38.532108 1624.2936 730 4287502122
39.566971 1624.1064 729 4288679464
40.666054 1624.1064 729 4288679464
41.765137 1624.1064 729 4289467922
42.79266 1623.9193 728 4290849575
43.889908 1623.9193 728 4290850097
44.987156 1623.9193 728 4290981426
46.084404 1623.9193 728 4290913331
47.102753 1623.7321 727 4290321451
48.198166 1623.7321 727 4290517280
49.293579 1623.7321 727 4290122522
50.304588 1623.5449 726 4290119703
51.398167 1623.5449 726 4290383132
52.491745 1623.5449 726 4290320669
53.58532 1623.5449 726 4290583840
54.678898 1623.5449 726 4290323497
55.772476 1623.5449 726 4290586669
56.866055 1623.5449 726 4289603898
58.056881 1623.7321 727 4288156452
59.152294 1623.7321 727 4286726239
60.247707 1623.7321 727 4294955248
61.343121 1623.7321 727 4294507775
62.438534 1623.7321 727 4294967295
63.533943 1623.7321 727 4294967295
64.737617 1623.9193 728 4294967295
65.944954 1624.1064 729 4294967295
67.044037 1624.1064 729 4294967295
68.14312 1624.1064 729 4294836223
69.242203 1624.1064 729 4294836223
70.458717 1624.2936 730 4294836223
71.559631 1624.2936 730 4294901759
72.660553 1624.2936 730 4294770687
73.884407 1624.4807 731 4294901759
74.98716 1624.4807 731 4294901759
76.216515 1624.6678 732 4294901759
77.449539 1624.8551 733 4294770687
78.555962 1624.8551 733 4294901759
79.794495 1625.0422 734 4294967295
80.902756 1625.0422 734 4294967295
20.411009 1626.5284 748 4284940310
21.475229 1626.1578 746 4284940310
22.605505 1626.1578 746 4285661184
23.697248 1625.9725 745 4285530112
24.78532 1625.7871 744 4285267968
25.827522 1625.4165 742 4288950568
26.906422 1625.2312 741 4286923612
27.981651 1625.0459 740 4287516005
29.053211 1624.8606 739 4286658127
30.07156 1624.4899 737 4284618801
31.133945 1624.3046 736 4286784768
32.13945 1623.934 734 4287245312
33.192661 1623.7487 733 4287769615
34.242203 1623.5634 732 4286716672
35.34679 1623.5634 732 4288088336
36.390827 1623.3779 731 4288022543
37.431194 1623.1926 730 4288677920
38.532108 1623.1926 730 4289270057
39.633026 1623.1926 730 4289271576
40.733944 1623.1926 730 4289797920
41.765137 1623.0073 729 4289929016
42.86422 1623.0073 729 4291902806
43.889908 1622.822 728 4290983225
45.062386 1623.0073 729 4290588467
46.161469 1623.0073 729 4290712888
47.181652 1622.822 728 4290778681
48.2789 1622.822 728 4290450974
49.293579 1622.6367 727 4290319388
50.388992 1622.6367 727 4290320419
51.484406 1622.6367 727 4290517541
52.491745 1622.4514 726 4290386462
53.58532 1622.4514 726 4290583840
54.678898 1622.4514 726 4290257704
55.866055 1622.6367 727 4290191911
56.961468 1622.6367 727 4289470513
58.056881 1622.6367 727 4291510097
59.152294 1622.6367 727 4287718023
60.247707 1622.6367 727 4294959359
61.445873 1622.822 728 4294967295
62.543118 1622.822 728 4294967295
63.640366 1622.822 728 4294967295
64.845871 1623.0073 729 4294967295
65.944954 1623.0073 729 4294967295
67.044037 1623.0073 729 4294967295
68.14312 1623.0073 729 4294770687
69.357796 1623.1926 730 4294836223
70.458717 1623.1926 730 4294967295
71.559631 1623.1926 730 4294967295
72.660553 1623.1926 730 4294967295
73.884407 1623.3779 731 4294967295
75.111923 1623.5634 732 4294901759
76.216515 1623.5634 732 4294836223
77.449539 1623.7487 733 4294901759
78.555962 1623.7487 733 4294967295
79.794495 1623.934 734 4294967295
80.902756 1623.934 734 4294967295
21.544954 1625.3945 748 4286125374
22.605505 1625.0275 746 4286054400
23.735781 1625.0275 746 4286975488
24.78532 1624.6605 744 4286849333
25.869724 1624.4771 743 4289481053
26.950459 1624.2936 742 4289751679
28.073395 1624.2936 742 4288962164
29.100918 1623.9266 740 4289093234
30.170643 1623.7432 739 4288303718
31.185322 1623.3761 737 4288561738
32.13945 1622.8257 734 4288890447
33.192661 1622.6422 733 4289609809
34.299084 1622.6422 733 4287373103
35.34679 1622.4587 732 4288807169
36.390827 1622.2753 731 4289201670
37.49358 1622.2753 731 4289265664
38.596329 1622.2753 731 4290318089
39.633026 1622.0918 730 4289664270
40.733944 1622.0918 730 4290980130
41.765137 1621.9082 729 4290328376
42.86422 1621.9082 729 4290723134
43.889908 1621.7247 728 4290721100
45.062386 1621.9082 729 4289471034
46.161469 1621.9082 729 4290514984
47.260551 1621.9082 729 4290580777
48.2789 1621.7247 728 4290384931
49.376148 1621.7247 728 4290516517
50.473396 1621.7247 728 4290320419
51.570641 1621.7247 728 4290517541
52.667889 1621.7247 728 4290320419
53.675228 1621.5413 727 4290254626
54.770641 1621.5413 727 4290452519
55.866055 1621.5413 727 4290452519
56.961468 1621.5413 727 4289337912
58.154129 1621.7247 728 4292101218
59.251377 1621.7247 728 4289165469
60.348625 1621.7247 728 4294959615
61.445873 1621.7247 728 4294901759
62.647705 1621.9082 729 4294967295
63.746788 1621.9082 729 4294967295
64.845871 1621.9082 729 4294967295
65.944954 1621.9082 729 4294967295
67.15596 1622.0918 730 4294967295
68.256882 1622.0918 730 4294377471
69.357796 1622.0918 730 4294770687
70.458717 1622.0918 730 4294967295
71.678902 1622.2753 731 4294967295
72.781654 1622.2753 731 4294639615
74.007339 1622.4587 732 4294901759
75.111923 1622.4587 732 4294901759
76.343117 1622.6422 733 4294901759
77.57798 1622.8257 734 4294967295
78.946793 1623.1926 736 4294967295
80.058716 1623.1926 736 4294967295
21.544954 1624.2605 748 4289362843
22.605505 1623.8972 746 4289623662
23.735781 1623.8972 746 4290347641
24.78532 1623.5339 744 4290544543
25.869724 1623.3523 743 4290215579
26.994495 1623.3523 743 4288964481
28.073395 1623.1707 742 4288240757
29.148624 1622.989 741 4288961914
30.121101 1622.4441 738 4293041079
31.236698 1622.4441 738 4292386716
32.13945 1621.7174 734 4291926165
33.247707 1621.7174 734 4290801276
34.299084 1621.5358 733 4286195766
35.34679 1621.3541 732 4288349972
36.451378 1621.3541 732 4288415765
37.49358 1621.1725 731 4288938001
38.596329 1621.1725 731 4290713387
39.699081 1621.1725 731 4289733703
40.733944 1620.9908 730 4292760182
41.834862 1620.9908 730 4292115056
42.93578 1620.9908 730 4292509813
43.963303 1620.8092 729 4292836716
45.062386 1620.8092 729 4287639069
46.161469 1620.8092 729 4290316333
47.260551 1620.8092 729 4290776884
48.359634 1620.8092 729 4290385442
49.376148 1620.6276 728 4290385442
50.473396 1620.6276 728 4290320419
51.570641 1620.6276 728 4290320419
52.755962 1620.8092 729 4290320419
53.765137 1620.6276 728 4290254626
54.862385 1620.6276 728 4289991981
55.959633 1620.6276 728 4290649911
57.056881 1620.6276 728 4289210958
58.154129 1620.6276 728 4293355917
59.251377 1620.6276 728 4289499825
60.449543 1620.8092 729 4294962431
61.548622 1620.8092 729 4294967295
62.647705 1620.8092 729 4294967295
63.746788 1620.8092 729 4294967295
64.845871 1620.8092 729 4294967295
66.055046 1620.9908 730 4294901759
67.15596 1620.9908 730 4294901759
68.256882 1620.9908 730 4294967295
69.473396 1621.1725 731 4294967295
70.576149 1621.1725 731 4294967295
71.678902 1621.1725 731 4294967295
72.902756 1621.3541 732 4294967295
74.007339 1621.3541 732 4294967295
75.236694 1621.5358 733 4294967295
76.469727 1621.7174 734 4294967295
77.834862 1622.0807 736 4294967295
78.946793 1622.0807 736 4294967295
21.614679 1623.4862 750 4288381081
22.6789 1623.1266 748 4288575880
23.812843 1623.1266 748 4289891740
24.825687 1622.5872 745 4289892258
25.911926 1622.4073 744 4288444812
27.038532 1622.4073 744 4288242806
28.119267 1622.2275 743 4287716461
29.196331 1622.0477 742 4286728295
30.269724 1621.8679 741 4291926198
31.339449 1621.6881 740 4292258730
32.245872 1620.9688 736 4290613904
33.247707 1620.6091 734 4289948279
34.299084 1620.4293 733 4286000956
35.405506 1620.4293 733 4288413978
36.451378 1620.2495 732 4290321975
37.555962 1620.2495 732 4289804614
38.660549 1620.2495 732 4290857045
39.699081 1620.0697 731 4290795116
40.801834 1620.0697 731 4292374148
41.904587 1620.0697 731 4293104029
42.93578 1619.8899 730 4293038236
44.036697 1619.8899 730 4293166503
45.137615 1619.8899 730 4287574098
46.238533 1619.8899 730 4290513444
47.260551 1619.7101 729 4291237424
48.359634 1619.7101 729 4290516778
49.458717 1619.7101 729 4290648365
50.557796 1619.7101 729 4290386725
51.570641 1619.5303 728 4290584361
52.755962 1619.7101 729 4290322477
53.855045 1619.7101 729 4289664804
54.862385 1619.5303 728 4289663005
56.053211 1619.7101 729 4290715436
57.056881 1619.5303 728 4289279311
58.251377 1619.7101 729 4292963719
59.35046 1619.7101 729 4290355641
60.449543 1619.7101 729 4294963199
61.548622 1619.7101 729 4294967295
62.647705 1619.7101 729 4294967295
63.746788 1619.7101 729 4294967295
64.954132 1619.8899 730 4294901759
66.055046 1619.8899 730 4294770687
67.15596 1619.8899 730 4294967295
68.256882 1619.8899 730 4294967295
69.473396 1620.0697 731 4294967295
70.576149 1620.0697 731 4294967295
71.798164 1620.2495 732 4294967295
72.902756 1620.2495 732 4294967295
74.130272 1620.4293 733 4294967295
75.361465 1620.6091 734 4294967295
76.722939 1620.9688 736 4294967295
77.963303 1621.1487 737 4294967295
79.337616 1621.5083 739 4294967295
21.649542 1622.5266 751 4288509826
22.715597 1622.1707 749 4289430426
23.812843 1621.9927 748 4289825183
24.866055 1621.6367 746 4289364621
25.911926 1621.2808 744 4287522417
27.038532 1621.2808 744 4287716698
28.119267 1621.1028 743 4287914334
29.196331 1620.9248 742 4288243096
30.319265 1620.9248 742 4291072196
31.390825 1620.7468 741 4290679436
32.352295 1620.2129 738 4287126357
33.3578 1619.8569 736 4288758334
34.355965 1619.501 734 4286784544
35.464222 1619.501 734 4288818510
36.511925 1619.323 733 4293950364
37.618347 1619.323 733 4293436324
38.72477 1619.323 733 4294028717
39.765137 1619.1449 732 4293898955
40.869724 1619.1449 732 4294951901
41.904587 1618.9669 731 4294360521
43.007339 1618.9669 731 4294492107
44.036697 1618.7889 730 4293431225
45.137615 1618.7889 730 4287838820
46.238533 1618.7889 730 4290184234
47.260551 1618.611 729 4291368251
48.359634 1618.611 729 4290517291
49.458717 1618.611 729 4290385962
50.557796 1618.611 729 4290517030
51.656879 1618.611 729 4290648617
52.755962 1618.611 729 4290517291
53.855045 1618.611 729 4290846513
54.954128 1618.611 729 4289799715
56.053211 1618.611 729 4291247161
57.152294 1618.611 729 4289416795
58.251377 1618.611 729 4292969361
59.35046 1618.611 729 4290028720
60.449543 1618.611 729 4294964735
61.548622 1618.611 729 4294967295
62.752293 1618.7889 730 4294967295
63.85321 1618.7889 730 4294967295
64.954132 1618.7889 730 4294967295
66.165138 1618.9669 731 4294967295
67.267891 1618.9669 731 4294967295
68.370644 1618.9669 731 4294967295
69.588989 1619.1449 732 4294967295
70.811012 1619.323 733 4294967295
71.917435 1619.323 733 4294967295
73.144951 1619.501 734 4294967295
74.253212 1619.501 734 4294967295
75.611008 1619.8569 736 4294967295
76.976151 1620.2129 738 4294967295
78.091743 1620.2129 738 4294967295
23.851376 1621.0349 749 4289430439
24.946789 1620.8588 748 4288967826
25.954128 1620.3303 745 4288836240
27.038532 1620.1542 744 4288900738
28.165138 1620.1542 744 4290545307
29.244038 1619.978 743 4290747821
30.319265 1619.8019 742 4290484392
31.390825 1619.6257 741 4290151836
32.458717 1619.4496 740 4288177790
33.412846 1618.9211 737 4289479758
34.469727 1618.745 736 4287966519
35.464222 1618.3927 734 4288888387
36.572475 1618.3927 734 4293428104
37.680733 1618.3927 734 4292585659
38.72477 1618.2166 733 4292454074
39.831192 1618.2166 733 4292916424
40.869724 1618.0404 732 4292850630
41.974312 1618.0404 732 4293112253
43.078899 1618.0404 732 4293046460
44.110092 1617.8643 731 4292448164
45.137615 1617.6881 730 4288303205
46.238533 1617.6881 730 4290323247
47.339451 1617.6881 730 4290323247
48.359634 1617.512 729 4290257454
49.458717 1617.512 729 4289994025
50.6422 1617.6881 730 4290580508
51.656879 1617.512 729 4290777888
52.755962 1617.512 729 4290318368
53.855045 1617.512 729 4291173677
54.954128 1617.512 729 4289734974
56.053211 1617.512 729 4291116627
57.152294 1617.512 729 4289813097
58.251377 1617.512 729 4292707990
59.35046 1617.512 729 4289767099
60.449543 1617.512 729 4294965759
61.548622 1617.512 729 4294967295
62.752293 1617.6881 730 4294967295
63.959633 1617.8643 731 4294967295
65.062386 1617.8643 731 4294967295
66.165138 1617.8643 731 4294967295
67.379814 1618.0404 732 4294967295
68.484406 1618.0404 732 4294967295
69.70459 1618.2166 733 4294967295
70.928444 1618.3927 734 4294901759
72.27523 1618.745 736 4294967295
73.387154 1618.745 736 4294836223
74.622017 1618.9211 737 4294901759
75.735779 1618.9211 737 4294901759
76.976151 1619.0973 738 4294901759
78.220184 1619.2734 739 4294967295
79.467888 1619.4496 740 4294967295
23.92844 1620.2477 751 4288771478
24.987156 1619.899 749 4289100191
25.99633 1619.3761 746 4291271616
27.082569 1619.2018 745 4291206573
28.165138 1619.0275 744 4292193468
29.244038 1618.8533 743 4291800770
30.368807 1618.8533 743 4291734977
31.442202 1618.679 742 4292324797
32.511925 1618.5046 741 4290219678
33.522934 1618.156 739 4290404976
34.583485 1617.9817 738 4287575877
35.58165 1617.6331 736 4288951363
36.693577 1617.6331 736 4293820302
37.680733 1617.2844 734 4292120229
38.78899 1617.2844 734 4290672783
39.831192 1617.1101 733 4290209922
40.937614 1617.1101 733 4289354614
42.044037 1617.1101 733 4289678418
43.078899 1616.9358 732 4288823109
44.183487 1616.9358 732 4290659389
45.212845 1616.7615 731 4291448905
46.238533 1616.5872 730 4290981193
47.339451 1616.5872 730 4290783813
48.440369 1616.5872 730 4290517562
49.541283 1616.5872 730 4289991218
50.6422 1616.5872 730 4290253361
51.656879 1616.4128 729 4291371585
52.844036 1616.5872 730 4290523445
53.855045 1616.4128 729 4290917946
54.954128 1616.4128 729 4289873249
56.053211 1616.4128 729 4291912575
57.152294 1616.4128 729 4290145924
58.348625 1616.5872 730 4292251300
59.35046 1616.4128 729 4290160840
60.550457 1616.5872 730 4294966015
61.651375 1616.5872 730 4294967295
62.85688 1616.7615 731 4294967295
64.066055 1616.9358 732 4294967295
65.170639 1616.9358 732 4294967295
66.27523 1616.9358 732 4294967295
67.491745 1617.1101 733 4294967295
68.598167 1617.1101 733 4294967295
69.820183 1617.2844 734 4294967295
70.928444 1617.2844 734 4294967295
72.394493 1617.8074 737 4294967295
73.508255 1617.8074 737 4294967295
74.744957 1617.9817 738 4294967295
75.86055 1617.9817 738 4294967295
77.102753 1618.156 739 4294967295
78.348625 1618.3303 740 4294967295
80.119263 1619.2018 745 4294967295
81.379814 1619.3761 746 4294967295
26.080734 1618.5908 748 4289824933
27.082569 1618.0734 745 4289628820
28.165138 1617.9009 744 4291536817
29.291742 1617.9009 744 4291409349
30.368807 1617.7284 743 4291409349
31.442202 1617.5559 742 4292654030
32.511925 1617.3835 741 4289495967
33.522934 1617.0386 739 4290668421
34.583485 1616.8661 738 4287773528
35.640366 1616.6936 737 4288815150
36.754128 1616.6936 737 4292302180
37.805504 1616.5211 736 4290209920
38.78899 1616.1761 734 4288499303
39.897247 1616.1761 734 4289934413
40.937614 1616.0037 733 4289408069
42.044037 1616.0037 733 4290126647
43.150459 1616.0037 733 4290126647
44.183487 1615.8312 732 4290982719
45.288074 1615.8312 732 4292035664
46.392662 1615.8312 732 4292631394
47.41835 1615.6587 731 4290197053
48.440369 1615.4862 730 4290980157
49.541283 1615.4862 730 4290388020
50.6422 1615.4862 730 4290191659
51.743118 1615.4862 730 4290981175
52.844036 1615.4862 730 4290065987
53.944954 1615.4862 730 4291052882
55.045872 1615.4862 730 4290139739
56.14679 1615.4862 730 4291323757
57.247707 1615.4862 730 4289949824
58.348625 1615.4862 730 4292055456
59.449543 1615.4862 730 4290161090
60.550457 1615.4862 730 4294967295
61.651375 1615.4862 730 4294967295
62.961468 1615.8312 732 4294967295
64.066055 1615.8312 732 4294967295
65.170639 1615.8312 732 4294967295
66.385323 1616.0037 733 4294967295
67.491745 1616.0037 733 4294967295
68.711929 1616.1761 734 4294967295
69.820183 1616.1761 734 4294967295
71.280731 1616.6936 737 4294967295
72.394493 1616.6936 737 4294967295
73.629356 1616.8661 738 4294967295
74.744957 1616.8661 738 4294967295
75.985321 1617.0386 739 4294836223
77.229355 1617.2111 740 4294967295
78.348625 1617.2111 740 4294967295
80.119263 1618.0734 745 4294967295
81.644035 1618.5908 748 4294967295
82.777985 1618.5908 748 4294967295
25.954128 1616.9449 745 4288825465
27.082569 1616.9449 745 4289161807
28.21101 1616.9449 745 4290740582
29.291742 1616.7743 744 4291665309
30.368807 1616.6036 743 4291731102
31.493578 1616.6036 743 4291795349
32.565136 1616.433 742 4289426801
33.57798 1616.0918 740 4290866040
34.640366 1615.9211 739 4288102734
35.699081 1615.7505 738 4288940074
36.814678 1615.7505 738 4288545316
37.867889 1615.5798 737 4288807457
38.917431 1615.4092 736 4288873251
39.897247 1615.0679 734 4289268512
41.005505 1615.0679 734 4289860650
42.113762 1615.0679 734 4289991981
43.222019 1615.0679 734 4290057774
44.256882 1614.8972 733 4290521670
45.363304 1614.8972 733 4291837787
46.392662 1614.7266 732 4291380287
47.49725 1614.7266 732 4290129963
48.521099 1614.5559 731 4290587463
49.541283 1614.3854 730 4290850636
50.6422 1614.3854 730 4290658626
51.743118 1614.3854 730 4290921542
52.844036 1614.3854 730 4290332753
53.944954 1614.3854 730 4291517026
55.045872 1614.3854 730 4290404190
56.14679 1614.3854 730 4290996583
57.343121 1614.5559 731 4289817974
58.445873 1614.5559 731 4292120729
59.449543 1614.3854 730 4290162625
60.651375 1614.5559 731 4294967295
61.754128 1614.5559 731 4294967295
63.066055 1614.8972 733 4294967295
64.172478 1614.8972 733 4294967295
65.2789 1614.8972 733 4294967295
66.495415 1615.0679 734 4294967295
67.603668 1615.0679 734 4294967295
68.711929 1615.0679 734 4294967295
70.051376 1615.4092 736 4294967295
71.280731 1615.5798 737 4294967295
72.513763 1615.7505 738 4294967295
73.629356 1615.7505 738 4294901759
74.867889 1615.9211 739 4294967295
75.985321 1615.9211 739 4294967295
77.355965 1616.2623 741 4294967295
78.477066 1616.2623 741 4294967295
79.598167 1616.2623 741 4294967295
81.379814 1617.1156 746 4294967295
82.911926 1617.6276 749 4294967295
24.082569 1617.5046 755 4287496742
25.229359 1617.5046 755 4288287789
26.122936 1616.4917 749 4287958824
27.258715 1616.4917 749 4288358420
28.25688 1615.9854 746 4290266417
29.339449 1615.8165 745 4289748588
30.418348 1615.6477 744 4289485416
31.493578 1615.4789 743 4289221477
32.618347 1615.4789 743 4289221477
33.633026 1615.1412 741 4289743711
34.697247 1614.9725 740 4288756560
35.757797 1614.8037 739 4289140265
36.875229 1614.8037 739 4289008936
37.930275 1614.6349 738 4289662503
38.981651 1614.4661 737 4289859881
40.095413 1614.4661 737 4290058015
41.141285 1614.2972 736 4290058015
42.253212 1614.2972 736 4290385192
43.365139 1614.2972 736 4290648365
44.330276 1613.9596 734 4290322745
45.438534 1613.9596 734 4290783296
46.546787 1613.9596 734 4290588217
47.576145 1613.7908 733 4290522168
48.682568 1613.7908 733 4290260032
49.706421 1613.6221 732 4290654790
50.726604 1613.4532 731 4290526795
51.829357 1613.4532 731 4290790224
52.93211 1613.4532 731 4290202452
54.034863 1613.4532 731 4291123554
55.137615 1613.4532 731 4290338912
56.240368 1613.4532 731 4291062636
57.343121 1613.4532 731 4289817976
58.445873 1613.4532 731 4292252318
59.548622 1613.4532 731 4290820047
60.752293 1613.6221 732 4294967295
61.959633 1613.7908 733 4294967295
63.066055 1613.7908 733 4294967295
64.2789 1613.9596 734 4294967295
65.387154 1613.9596 734 4294967295
66.495415 1613.9596 734 4294967295
67.603668 1613.9596 734 4294967295
69.053207 1614.4661 737 4294967295
70.166969 1614.4661 737 4294967295
71.398163 1614.6349 738 4294967295
72.513763 1614.6349 738 4294967295
73.750458 1614.8037 739 4294770687
74.867889 1614.8037 739 4294967295
76.110092 1614.9725 740 4294967295
77.482567 1615.3101 742 4294967295
78.862389 1615.6477 744 4294967295
80.249542 1615.9854 746 4294901759
81.644035 1616.323 748 4294967295
82.911926 1616.4917 749 4294967295
24.159634 1616.6918 757 4286973978
25.188992 1616.1908 754 4287431435
26.249542 1615.8569 752 4287299849
27.302752 1615.5229 750 4287497743
28.25688 1614.8551 746 4287366157
29.387156 1614.8551 746 4287431435
30.418348 1614.5211 744 4287431435
31.544954 1614.5211 744 4287628046
32.618347 1614.3541 743 4288022804
33.688072 1614.1871 742 4288483355
34.754128 1614.0201 741 4288943906
35.816513 1613.8533 740 4289335850
36.875229 1613.6863 739 4289533228
37.992661 1613.6863 739 4289663783
39.045872 1613.5193 738 4289926956
40.161469 1613.5193 738 4289992733
41.344955 1613.6863 739 4290124319
42.322937 1613.3523 737 4289927219
43.365139 1613.1853 736 4290321977
44.477066 1613.1853 736 4289995843
45.588989 1613.1853 736 4290061636
46.546787 1612.8513 734 4290258249
47.655045 1612.8513 734 4291574109
48.763302 1612.8513 734 4290723917
49.78899 1612.6844 733 4290723917
50.811008 1612.5175 732 4290397517
51.915596 1612.5175 732 4290660432
53.020184 1612.5175 732 4290334554
54.034863 1612.3505 731 4291058020
55.229359 1612.5175 732 4290272350
56.333946 1612.5175 732 4291259501
57.533943 1612.6844 733 4289555068
58.640366 1612.6844 733 4292713132
59.746788 1612.6844 733 4290953434
60.954128 1612.8513 734 4294967295
62.062386 1612.8513 734 4294967295
63.170643 1612.8513 734 4294967295
64.2789 1612.8513 734 4294967295
65.603668 1613.1853 736 4294967295
66.825691 1613.3523 737 4294967295
67.939453 1613.3523 737 4294967295
69.166969 1613.5193 738 4294967295
70.28257 1613.5193 738 4294967295
71.398163 1613.5193 738 4294967295
72.633026 1613.6863 739 4294967295
73.871559 1613.8533 740 4294967295
74.867889 1613.6863 739 4294967295
76.234863 1614.0201 741 4294967295
77.735779 1614.5211 744 4294967295
79.119263 1614.8551 746 4294967295
80.510094 1615.189 748 4294967295
81.908257 1615.5229 750 4294901759
83.179817 1615.6899 751 4294967295
84.455048 1615.8569 752 4294967295
24.159634 1615.5413 757 4287238431
25.229359 1615.2111 755 4287629595
26.291742 1614.8807 753 4287761181
27.346788 1614.5504 751 4288222497
28.394495 1614.2202 749 4288222497
29.482569 1614.0551 748 4288286233
30.46789 1613.5596 745 4288483355
31.544954 1613.3945 744 4288679966
32.618347 1613.2294 743 4288679966
33.743118 1613.2294 743 4289006369
34.811008 1613.0642 742 4289203749
35.875229 1612.899 741 4289271594
36.93578 1612.7339 740 4289337388
37.992661 1612.5688 739 4289468719
39.110092 1612.5688 739 4289731891
40.161469 1612.4037 738 4289798952
41.344955 1612.5688 739 4289864745
42.392662 1612.4037 738 4289667895
43.436699 1612.2385 737 4290128446
44.550457 1612.2385 737 4289867334
45.664219 1612.2385 737 4289407039
46.700916 1612.0734 736 4289667645
47.891743 1612.2385 737 4291509849
48.92477 1612.0734 736 4290725464
49.871559 1611.7432 734 4290527829
50.979816 1611.7432 734 4290463560
52.001835 1611.578 733 4290660682
53.108257 1611.578 733 4290464854
54.21468 1611.578 733 4291188577
55.412846 1611.7432 734 4290206557
56.521099 1611.7432 734 4291259501
57.629356 1611.7432 734 4289358970
58.93211 1612.0734 736 4292714413
59.845871 1611.7432 734 4291151065
61.155964 1612.0734 736 4294967295
62.267891 1612.0734 736 4294967295
63.484406 1612.2385 737 4294967295
64.491745 1612.0734 736 4294967295
65.603668 1612.0734 736 4294967295
66.825691 1612.2385 737 4294967295
67.939453 1612.2385 737 4294967295
69.166969 1612.4037 738 4294967295
70.28257 1612.4037 738 4294967295
71.515594 1612.5688 739 4294967295
72.633026 1612.5688 739 4294967295
73.992661 1612.899 741 4294967295
74.990829 1612.7339 740 4294967295
76.484406 1613.2294 743 4294967295
77.988991 1613.7247 746 4294967295
79.633026 1614.3854 750 4294967295
80.770645 1614.3854 750 4294967295
