# .PCD v0.7 - Point Cloud Data file format
VERSION 0.7
FIELDS x y z rgb
SIZE 4 4 4 4
TYPE F F F U
COUNT 1 1 1 1
WIDTH 1379
HEIGHT 1
VIEWPOINT 0 0 0 1 0 0 0
POINTS 1379
DATA ascii
81.875229 1639.2385 733 4290836479
82.981651 1639.2385 733 4290836479
84.227524 1639.4496 734 4290573055
85.618347 1639.8716 736 4290507263
86.730278 1639.8716 736 4290573055
87.842201 1639.8716 736 4290573055
89.100914 1640.0825 737 4290507263
90.214676 1640.0825 737 4290573055
27.038532 1640.433 744 4282407550
28.119267 1640.2239 743 4282341757
29.244038 1640.2239 743 4283001225
30.319265 1640.0146 742 4283790485
31.390825 1639.8055 741 4283070625
32.405506 1639.3872 739 4282741660
33.467892 1639.178 738 4281230497
34.526604 1638.9688 737 4281230497
35.464222 1638.3413 734 4281819804
36.511925 1638.1321 733 4281819804
37.555962 1637.923 732 4283655316
38.596329 1637.7137 731 4285102763
39.633026 1637.5046 730 4285627047
40.733944 1637.5046 730 4284903067
41.765137 1637.2954 729 4282938022
42.79266 1637.0862 728 4282345628
43.889908 1637.0862 728 4281689252
44.987156 1637.0862 728 4281425823
46.084404 1637.0862 728 4280239869
47.181652 1637.0862 728 4279187180
48.359634 1637.2954 729 4279648910
49.458717 1637.2954 729 4280570012
50.557796 1637.2954 729 4281817226
51.656879 1637.2954 729 4281619591
52.755962 1637.2954 729 4281094784
53.855045 1637.2954 729 4281752715
54.954128 1637.2954 729 4282277777
56.053211 1637.2954 729 4281225089
57.152294 1637.2954 729 4280764788
58.251377 1637.2954 729 4278725462
59.35046 1637.2954 729 4278199648
60.449543 1637.2954 729 4280637845
61.548622 1637.2954 729 4283784613
62.752293 1637.5046 730 4287534815
63.85321 1637.5046 730 4287016922
64.845871 1637.2954 729 4291161855
65.944954 1637.2954 729 4291033855
67.044037 1637.2954 729 4290968063
68.14312 1637.2954 729 4290835455
69.242203 1637.2954 729 4290638335
70.341286 1637.2954 729 4290507007
71.440369 1637.2954 729 4290572799
72.539452 1637.2954 729 4290245375
73.638535 1637.2954 729 4290574335
74.737617 1637.2954 729 4290967295
75.8367 1637.2954 729 4290769919
77.064217 1637.5046 730 4290768639
78.29541 1637.7137 731 4290966015
79.530273 1637.923 732 4290966015
80.634865 1637.923 732 4290966015
81.875229 1638.1321 733 4290835711
82.981651 1638.1321 733 4290835711
84.227524 1638.3413 734 4290376703
85.335777 1638.3413 734 4290179583
86.730278 1638.7596 736 4290245887
87.842201 1638.7596 736 4290311679
89.247704 1639.178 738 4290638847
25.911926 1639.3064 744 4281158267
26.994495 1639.0991 743 4280765558
28.119267 1639.0991 743 4281160316
29.244038 1639.0991 743 4282736252
30.319265 1638.8917 742 4284578200
31.339449 1638.4771 740 4284513955
32.405506 1638.2698 739 4284119198
33.467892 1638.0624 738 4282937504
34.526604 1637.8551 737 4282147988
35.58165 1637.6477 736 4282015130
36.511925 1637.0256 733 4281686421
37.618347 1637.0256 733 4282340501
38.532108 1636.4037 730 4282801052
39.633026 1636.4037 730 4282408082
40.666054 1636.1963 729 4281947531
41.695412 1635.989 728 4281230218
42.7211 1635.7816 727 4283269801
43.816513 1635.7816 727 4289051821
44.911926 1635.7816 727 4292867815
46.007339 1635.7816 727 4292270335
47.102753 1635.7816 727 4289638634
48.198166 1635.7816 727 4284970927
49.376148 1635.989 728 4282470793
50.473396 1635.989 728 4281226632
51.570641 1635.989 728 4281292425
52.755962 1636.1963 729 4281424526
53.855045 1636.1963 729 4281687955
54.954128 1636.1963 729 4282408078
56.053211 1636.1963 729 4281355390
57.152294 1636.1963 729 4279584121
58.251377 1636.1963 729 4279189363
59.35046 1636.1963 729 4282403462
60.449543 1636.1963 729 4285364404
61.445873 1635.989 728 4286014375
62.647705 1636.1963 729 4286409133
63.746788 1636.1963 729 4284644290
64.845871 1636.1963 729 4290631423
65.944954 1636.1963 729 4291752703
67.044037 1636.1963 729 4292015615
68.029358 1635.989 728 4290770687
69.126602 1635.989 728 4290638847
70.223854 1635.989 728 4290770687
71.440369 1636.1963 729 4290770687
72.539452 1636.1963 729 4290835711
73.638535 1636.1963 729 4290901503
74.737617 1636.1963 729 4291229951
75.8367 1636.1963 729 4291164159
76.935783 1636.1963 729 4291098367
78.165138 1636.4037 730 4291295743
79.398163 1636.611 731 4290769663
80.634865 1636.8184 732 4290638335
81.875229 1637.0256 733 4290573055
82.981651 1637.0256 733 4290638847
84.227524 1637.233 734 4290638847
85.335777 1637.233 734 4290638847
86.730278 1637.6477 736 4290638847
87.98716 1637.8551 737 4290638847
89.100914 1637.8551 737 4290901503
25.954128 1638.3854 745 4281027965
27.038532 1638.1798 744 4280700276
28.073395 1637.7688 742 4281095034
29.244038 1637.9744 743 4282603135
30.269724 1637.5634 741 4284774048
31.339449 1637.3578 740 4285170856
32.405506 1637.1523 739 4284052376
33.467892 1636.9468 738 4282675363
34.526604 1636.7413 737 4281885848
35.464222 1636.1248 734 4281949328
36.511925 1635.9193 733 4281817485
37.618347 1635.9193 733 4281161870
38.596329 1635.5083 731 4281622421
39.633026 1635.3027 730 4281949328
40.666054 1635.0973 729 4281554570
41.695412 1634.8917 728 4281949326
42.79266 1634.8917 728 4286094285
43.889908 1634.8917 728 4288334335
44.911926 1634.6863 727 4290176511
46.007339 1634.6863 727 4289386495
47.023853 1634.4807 726 4287215346
48.198166 1634.6863 727 4283857607
49.293579 1634.6863 727 4281554852
50.388992 1634.6863 727 4280047493
51.484406 1634.6863 727 4280573837
52.667889 1634.8917 728 4280900751
53.765137 1634.8917 728 4281295509
54.862385 1634.8917 728 4282343822
55.959633 1634.8917 728 4281027963
57.056881 1634.8917 728 4278203500
58.154129 1634.8917 728 4279322752
59.251377 1634.8917 728 4285683637
60.348625 1634.8917 728 4286538945
61.548622 1635.0973 729 4286732424
62.543118 1634.8917 728 4286337666
63.640366 1634.8917 728 4285358980
64.737617 1634.8917 728 4291083227
65.834862 1634.8917 728 4291028223
66.932114 1634.8917 728 4292015103
67.915596 1634.6863 727 4291099135
69.011009 1634.6863 727 4290901759
70.106422 1634.6863 727 4290705407
71.321098 1634.8917 728 4290705407
72.41835 1634.8917 728 4290704895
73.515594 1634.8917 728 4290836479
74.612846 1634.8917 728 4291426815
75.8367 1635.0973 729 4291097855
76.935783 1635.0973 729 4290705407
78.165138 1635.3027 730 4290705407
79.398163 1635.5083 731 4290376191
80.634865 1635.7137 732 4290441983
81.875229 1635.9193 733 4290244351
82.981651 1635.9193 733 4290507775
84.227524 1636.1248 734 4290900991
85.618347 1636.5358 736 4290900991
86.730278 1636.5358 736 4290900991
87.98716 1636.7413 737 4290835199
89.247704 1636.9468 738 4291097599
24.825687 1637.2568 745 4281619078
25.911926 1637.0532 744 4281750920
26.994495 1636.8495 743 4281619582
28.119267 1636.8495 743 4281553788
29.244038 1636.8495 743 4281749636
30.269724 1636.4421 741 4281617794
31.339449 1636.2385 740 4281094530
32.405506 1636.0349 739 4280568186
33.467892 1635.8312 738 4280701319
34.526604 1635.6276 737 4280964748
35.464222 1635.0165 734 4281226636
36.511925 1634.8129 733 4281489808
37.555962 1634.6091 732 4281949328
38.596329 1634.4055 731 4282870430
39.633026 1634.2018 730 4282737815
40.666054 1633.9982 729 4282013835
41.765137 1633.9982 729 4281162906
42.79266 1633.7944 728 4286097380
43.889908 1633.7944 728 4289382143
44.911926 1633.5908 727 4291487743
46.007339 1633.5908 727 4290497535
47.023853 1633.3872 726 4286352596
48.117432 1633.3872 726 4283394988
49.21101 1633.3872 726 4282144922
50.304588 1633.3872 726 4280375692
51.398167 1633.3872 726 4281164952
52.491745 1633.3872 726 4281294994
53.58532 1633.3872 726 4281097614
54.770641 1633.5908 727 4280898705
55.866055 1633.5908 727 4279845760
56.961468 1633.5908 727 4282603658
58.056881 1633.5908 727 4286683081
59.152294 1633.5908 727 4289103564
60.14679 1633.3872 726 4285353363
61.240368 1633.3872 726 4285931340
62.333946 1633.3872 726 4285602375
63.533943 1633.5908 727 4282851957
64.629356 1633.5908 727 4289497306
65.72477 1633.5908 727 4288660991
66.820183 1633.5908 727 4291687167
67.801834 1633.3872 726 4291558399
69.011009 1633.5908 727 4291097855
70.106422 1633.5908 727 4290705407
71.201836 1633.5908 727 4290639359
72.41835 1633.7944 728 4290638847
73.392662 1633.5908 727 4290704895
74.612846 1633.7944 728 4290704895
75.8367 1633.9982 729 4290638847
76.935783 1633.9982 729 4290639359
78.165138 1634.2018 730 4290639359
79.398163 1634.4055 731 4290704639
80.634865 1634.6091 732 4290704639
81.875229 1634.8129 733 4290835711
82.981651 1634.8129 733 4290835711
84.227524 1635.0165 734 4290638335
85.618347 1635.4238 736 4290638335
86.873398 1635.6276 737 4290638335
87.98716 1635.6276 737 4290901503
89.247704 1635.8312 738 4291294463
90.363304 1635.8312 738 4291755007
25.869724 1635.7247 743 4281881221
26.950459 1635.5229 742 4281948033
28.073395 1635.5229 742 4282013826
29.196331 1635.5229 742 4281554568
30.269724 1635.321 741 4281160066
31.339449 1635.1193 740 4281487232
32.405506 1634.9175 739 4281553025
33.412846 1634.5138 737 4281290882
34.469727 1634.3119 736 4281488262
35.464222 1633.9082 734 4281751431
36.511925 1633.7064 733 4281883017
37.618347 1633.7064 733 4282015119
38.596329 1633.3027 731 4282541719
39.633026 1633.101 730 4282869144
40.666054 1632.899 729 4282606229
41.765137 1632.899 729 4280835989
42.79266 1632.6973 728 4283072951
43.889908 1632.6973 728 4283663314
44.987156 1632.6973 728 4285044967
45.930275 1632.2936 726 4286289151
47.023853 1632.2936 726 4284512759
48.117432 1632.2936 726 4280969649
49.21101 1632.2936 726 4280838320
50.304588 1632.2936 726 4281489038
51.398167 1632.2936 726 4281949589
52.491745 1632.2936 726 4281558413
53.58532 1632.2936 726 4281295498
54.678898 1632.2936 726 4280572063
55.772476 1632.2936 726 4281164200
56.866055 1632.2936 726 4284771259
57.959633 1632.2936 726 4286613463
59.053211 1632.2936 726 4288838850
60.14679 1632.2936 726 4284035704
61.240368 1632.2936 726 4286447633
62.229359 1632.0918 725 4286776598
63.427525 1632.2936 726 4284753755
64.629356 1632.4954 727 4289293729
65.614677 1632.2936 726 4288328948
66.70826 1632.2936 726 4292276479
67.801834 1632.2936 726 4291492607
68.895416 1632.2936 726 4291097855
69.988991 1632.2936 726 4290705407
71.201836 1632.4954 727 4290376447
72.297249 1632.4954 727 4290376191
73.515594 1632.6973 728 4290639359
74.612846 1632.6973 728 4290704895
75.8367 1632.899 729 4290704895
76.935783 1632.899 729 4290901503
78.165138 1633.101 730 4290901503
79.398163 1633.3027 731 4290704639
80.634865 1633.5046 732 4290638847
81.875229 1633.7064 733 4290638847
82.981651 1633.7064 733 4290573055
84.227524 1633.9082 734 4290442751
85.618347 1634.3119 736 4290376703
86.873398 1634.5138 737 4290244607
88.132111 1634.7156 738 4290639359
89.247704 1634.7156 738 4291031807
90.660553 1635.1193 740 4290505471
25.869724 1634.6 743 4281094534
26.994495 1634.6 743 4281553536
28.073395 1634.4 742 4281816965
29.196331 1634.4 742 4281947531
30.269724 1634.2 741 4282013324
31.339449 1634 740 4282144390
32.405506 1633.8 739 4282210183
33.467892 1633.6 738 4282406533
34.355965 1632.8 734 4282472327
35.464222 1632.8 734 4282276233
36.511925 1632.6 733 4282342026
37.618347 1632.6 733 4282211723
38.660549 1632.4 732 4282474638
39.699081 1632.2 731 4282868116
40.733944 1632 730 4283920803
41.765137 1631.8 729 4283264670
42.86422 1631.8 729 4283198877
43.963303 1631.8 729 4283069608
44.987156 1631.6 728 4282938022
46.007339 1631.4 727 4281953451
47.102753 1631.4 727 4282085293
48.117432 1631.2 726 4282412470
49.21101 1631.2 726 4282412470
50.304588 1631.2 726 4282805668
51.398167 1631.2 726 4282871461
52.403671 1631 725 4284710555
53.495415 1631 725 4285894830
54.587154 1631 725 4287471061
55.678898 1631 725 4288194784
56.866055 1631.2 726 4288120544
57.862385 1631 725 4285160115
58.954128 1631 725 4286392168
60.045872 1631 725 4284023620
61.137615 1631 725 4285792265
62.229359 1631 725 4287432993
63.321102 1631 725 4285479037
64.521103 1631.2 726 4288374185
65.504585 1631 725 4283929575
66.70826 1631.2 726 4290443007
67.801834 1631.2 726 4292214783
68.895416 1631.2 726 4291360255
69.988991 1631.2 726 4290376703
71.201836 1631.4 727 4290113791
72.297249 1631.4 727 4290376703
73.515594 1631.6 728 4290903295
74.737617 1631.8 729 4290967295
75.8367 1631.8 729 4290901503
76.935783 1631.8 729 4291099135
78.165138 1632 730 4291033343
79.398163 1632.2 731 4290638847
80.634865 1632.4 732 4290638847
81.875229 1632.6 733 4290638847
82.981651 1632.6 733 4290573055
84.227524 1632.8 734 4290638847
85.759636 1633.4 737 4290638847
86.873398 1633.4 737 4290769663
88.132111 1633.6 738 4290901503
89.247704 1633.6 738 4291359743
90.511925 1633.8 739 4289122543
25.869724 1633.4752 743 4281947281
26.994495 1633.4752 743 4281683576
28.073395 1633.2771 742 4282078334
29.196331 1633.2771 742 4282209935
30.269724 1633.0789 741 4282144142
31.339449 1632.8807 740 4282210185
32.405506 1632.6826 739 4282275979
33.467892 1632.4844 738 4282603910
34.355965 1631.6918 734 4282735496
35.464222 1631.6918 734 4282735237
36.511925 1631.4935 733 4282471808
37.618347 1631.4935 733 4282144390
38.660549 1631.2954 732 4282670734
39.699081 1631.0973 731 4282211721
40.733944 1630.899 730 4283329945
41.834862 1630.899 730 4283791266
42.86422 1630.7009 729 4283659680
43.963303 1630.7009 729 4284119450
44.987156 1630.5028 728 4283856278
46.084404 1630.5028 728 4283529888
47.102753 1630.3046 727 4283529888
48.198166 1630.3046 727 4283464123
49.21101 1630.1064 726 4283069621
50.304588 1630.1064 726 4282871974
51.398167 1630.1064 726 4284187834
52.403671 1629.9082 725 4285828063
53.495415 1629.9082 725 4286025441
54.587154 1629.9082 725 4288390614
55.678898 1629.9082 725 4287798477
56.770641 1629.9082 725 4287266239
57.862385 1629.9082 725 4284239761
58.954128 1629.9082 725 4286582091
60.045872 1629.9082 725 4285464633
61.137615 1629.9082 725 4286316548
62.229359 1629.9082 725 4287628312
63.321102 1629.9082 725 4286138238
64.412842 1629.9082 725 4289164717
65.504585 1629.9082 725 4283929555
66.596329 1629.9082 725 4290311679
67.688072 1629.9082 725 4292018175
68.779816 1629.9082 725 4291164159
69.988991 1630.1064 726 4290180095
71.201836 1630.3046 727 4290245887
72.297249 1630.3046 727 4290770687
73.515594 1630.5028 728 4290836479
74.737617 1630.7009 729 4290705407
75.8367 1630.7009 729 4290705407
76.935783 1630.7009 729 4291033343
78.034859 1630.7009 729 4290967295
79.266052 1630.899 730 4290508031
80.500916 1631.0973 731 4290508031
81.739449 1631.2954 732 4290507263
83.119263 1631.6918 734 4290638847
84.506424 1632.0881 736 4290835711
85.900917 1632.4844 738 4290835711
87.01651 1632.4844 738 4290769663
88.132111 1632.4844 738 4290901503
89.247704 1632.4844 738 4291622911
90.511925 1632.6826 739 4289780728
25.869724 1632.3505 743 4284315829
26.994495 1632.3505 743 4283592579
28.073395 1632.1542 742 4283066235
29.148624 1631.9578 741 4281686431
30.269724 1631.9578 741 4281291673
31.339449 1631.7615 740 4281095050
32.352295 1631.3688 738 4280963464
33.467892 1631.3688 738 4281225087
34.469727 1630.9762 736 4281356673
35.464222 1630.5835 734 4281421689
36.572475 1630.5835 734 4281289847
37.618347 1630.3872 733 4280503424
38.660549 1630.1908 732 4280635267
39.765137 1630.1908 732 4280436855
40.801834 1629.9945 731 4279713131
41.834862 1629.7982 730 4280305800
42.93578 1629.7982 730 4279713663
43.963303 1629.6018 729 4281359215
45.062386 1629.6018 729 4281687923
46.084404 1629.4055 728 4285367958
47.181652 1629.4055 728 4287802299
48.198166 1629.2092 727 4290168295
49.21101 1629.0128 726 4290365673
50.304588 1629.0128 726 4290168306
51.398167 1629.0128 726 4290365942
52.403671 1628.8165 725 4289178623
53.495415 1628.8165 725 4286941681
54.587154 1628.8165 725 4285553836
55.678898 1628.8165 725 4282527614
56.770641 1628.8165 725 4284481841
57.862385 1628.8165 725 4284613683
58.954128 1628.8165 725 4286578745
60.045872 1628.8165 725 4286316597
61.137615 1628.8165 725 4285333526
62.229359 1628.8165 725 4285595674
63.321102 1628.8165 725 4284824455
64.412842 1628.8165 725 4289167049
65.504585 1628.8165 725 4284391139
66.596329 1628.8165 725 4289851903
67.688072 1628.8165 725 4291952639
68.779816 1628.8165 725 4291492863
69.988991 1629.0128 726 4290508031
71.201836 1629.2092 727 4290508031
72.297249 1629.2092 727 4290704895
73.515594 1629.4055 728 4290704895
74.737617 1629.6018 729 4290769919
75.8367 1629.6018 729 4290835711
76.935783 1629.6018 729 4290901503
78.034859 1629.6018 729 4290769919
79.266052 1629.7982 730 4290573055
80.500916 1629.9945 731 4290704895
81.875229 1630.3872 733 4290769663
83.119263 1630.5835 734 4290835455
84.506424 1630.9762 736 4290967039
85.900917 1631.3688 738 4291098367
87.01651 1631.3688 738 4290835711
88.132111 1631.3688 738 4291033343
89.247704 1631.3688 738 4291426815
25.869724 1631.2257 743 4283334052
26.994495 1631.2257 743 4283399061
28.073395 1631.0312 742 4283399061
29.148624 1630.8367 741 4283069608
30.269724 1630.8367 741 4282674850
31.288073 1630.4478 739 4282737824
32.352295 1630.2532 738 4282079894
33.412846 1630.0587 737 4281095050
34.469727 1629.8643 736 4281226636
35.464222 1629.4752 734 4281226370
36.572475 1629.4752 734 4281028991
37.618347 1629.2808 733 4280634499
38.72477 1629.2808 733 4281029257
39.765137 1629.0862 732 4281553538
40.801834 1628.8917 731 4281487489
41.904587 1628.8917 731 4281224605
42.93578 1628.6973 730 4282079658
43.963303 1628.5028 729 4283328178
45.062386 1628.5028 729 4284183487
46.084404 1628.3082 728 4288780010
47.181652 1628.3082 728 4289832441
48.198166 1628.1138 727 4290694143
49.293579 1628.1138 727 4290562559
50.304588 1627.9193 726 4290892543
51.398167 1627.9193 726 4289510894
52.403671 1627.7247 725 4287733733
53.495415 1627.7247 725 4285694150
54.587154 1627.7247 725 4285678710
55.678898 1627.7247 725 4282389059
56.770641 1627.7247 725 4286709797
57.862385 1627.7247 725 4287037481
58.954128 1627.7247 725 4287037483
60.045872 1627.7247 725 4286775336
61.137615 1627.7247 725 4284547106
62.229359 1627.7247 725 4285661235
63.321102 1627.7247 725 4286535341
64.412842 1627.7247 725 4289561562
65.504585 1627.7247 725 4286097658
66.596329 1627.7247 725 4290637311
67.688072 1627.7247 725 4291296511
68.895416 1627.9193 726 4290835967
69.988991 1627.9193 726 4290638847
71.201836 1628.1138 727 4290638847
72.41835 1628.3082 728 4290507263
73.638535 1628.5028 729 4290704639
74.737617 1628.5028 729 4290967039
75.963303 1628.6973 730 4291098367
76.935783 1628.5028 729 4290967039
78.165138 1628.6973 730 4290900991
79.398163 1628.8917 731 4290638847
80.500916 1628.8917 731 4290704895
81.875229 1629.2808 733 4290835711
83.119263 1629.4752 734 4290835711
84.645874 1630.0587 737 4291294463
85.759636 1630.0587 737 4291294463
87.01651 1630.2532 738 4290835711
88.132111 1630.2532 738 4290901503
89.247704 1630.2532 738 4290836479
90.363304 1630.2532 738 4290967807
26.994495 1630.101 743 4284444290
28.073395 1629.9082 742 4285562771
29.148624 1629.7156 741 4285104046
30.269724 1629.7156 741 4286617285
31.339449 1629.5229 740 4286551242
32.352295 1629.1376 738 4286551242
33.412846 1628.9449 737 4286485447
34.469727 1628.7523 736 4286814412
35.464222 1628.3669 734 4286945989
36.572475 1628.3669 734 4287011782
37.618347 1628.1743 733 4287471563
38.72477 1628.1743 733 4287668942
39.765137 1627.9817 732 4288259796
40.801834 1627.7889 731 4289180898
41.904587 1627.7889 731 4289706492
42.93578 1627.5963 730 4291088127
43.963303 1627.4037 729 4290956799
45.062386 1627.4037 729 4291614975
46.161469 1627.4037 729 4289639935
47.181652 1627.2111 728 4289179391
48.2789 1627.2111 728 4287337451
49.293579 1627.0183 727 4286153434
50.304588 1626.8257 726 4283453899
51.398167 1626.8257 726 4281348524
52.491745 1626.8257 726 4282908702
53.58532 1626.8257 726 4282646554
54.678898 1626.8257 726 4285333548
55.772476 1626.8257 726 4285726770
56.866055 1626.8257 726 4286971958
57.862385 1626.6331 725 4287037495
59.053211 1626.8257 726 4286185503
60.045872 1626.6331 725 4286840874
61.240368 1626.8257 726 4285012592
62.333946 1626.8257 726 4290407617
63.427525 1626.8257 726 4288583925
64.521103 1626.8257 726 4290557695
65.504585 1626.6331 725 4287611391
66.596329 1626.6331 725 4290835199
67.801834 1626.8257 726 4291361791
68.895416 1626.8257 726 4290835455
69.988991 1626.8257 726 4290900991
71.082565 1626.8257 726 4290900991
72.41835 1627.2111 728 4290900991
73.638535 1627.4037 729 4290835199
74.737617 1627.4037 729 4290901503
75.963303 1627.5963 730 4290967295
77.064217 1627.5963 730 4290967039
78.165138 1627.5963 730 4290900991
79.398163 1627.7889 731 4290835711
80.500916 1627.7889 731 4290835711
81.875229 1628.1743 733 4290769919
83.394493 1628.7523 736 4290835711
84.645874 1628.9449 737 4291426559
85.900917 1629.1376 738 4291426559
87.01651 1629.1376 738 4290638847
88.132111 1629.1376 738 4290770687
89.247704 1629.1376 738 4290901503
90.363304 1629.1376 738 4290769919
25.954128 1629.3578 745 4283371559
27.038532 1629.167 744 4283578456
28.073395 1628.7853 742 4285684088
29.148624 1628.5945 741 4283592338
30.269724 1628.5945 741 4284908198
31.339449 1628.4037 740 4284452013
32.405506 1628.2129 739 4284780977
33.412846 1627.8312 737 4285437111
34.469727 1627.6404 736 4285634234
35.58165 1627.6404 736 4286357182
36.572475 1627.2587 734 4286422975
37.618347 1627.0679 733 4287145158
38.72477 1627.0679 733 4287210951
39.765137 1626.8771 732 4287802831
40.801834 1626.6863 731 4288131540
41.904587 1626.6863 731 4288592876
42.93578 1626.4954 730 4288855792
44.036697 1626.4954 730 4288987645
45.062386 1626.3046 729 4288461045
46.161469 1626.3046 729 4286357223
47.181652 1626.1138 728 4285830878
48.2789 1626.1138 728 4285297573
49.293579 1625.923 727 4283784591
50.388992 1625.923 727 4286129010
51.484406 1625.923 727 4283629644
52.491745 1625.7321 726 4286382097
53.58532 1625.7321 726 4286578709
54.678898 1625.7321 726 4287103015
55.772476 1625.7321 726 4287234089
56.866055 1625.7321 726 4287234088
57.959633 1625.7321 726 4287168551
59.053211 1625.7321 726 4285661231
60.14679 1625.7321 726 4290130804
61.240368 1625.7321 726 4286866113
62.333946 1625.7321 726 4288576988
63.427525 1625.7321 726 4288454890
64.521103 1625.7321 726 4289507577
65.614677 1625.7321 726 4287087615
66.70826 1625.7321 726 4290443007
67.801834 1625.7321 726 4291689471
68.895416 1625.7321 726 4291228927
70.106422 1625.923 727 4291032063
71.201836 1625.923 727 4291032063
72.539452 1626.3046 729 4290835711
73.638535 1626.3046 729 4290835711
74.737617 1626.3046 729 4291098367
75.963303 1626.4954 730 4291098367
77.064217 1626.4954 730 4291098367
78.165138 1626.4954 730 4290967039
79.398163 1626.6863 731 4290835711
80.634865 1626.8771 732 4290835711
81.875229 1627.0679 733 4290835711
83.394493 1627.6404 736 4291033343
84.645874 1627.8312 737 4291295999
85.900917 1628.022 738 4291164415
87.01651 1628.022 738 4290638847
88.132111 1628.022 738 4290770431
89.247704 1628.022 738 4291098367
90.363304 1628.022 738 4290835199
28.073395 1627.6624 742 4281729034
29.196331 1627.6624 742 4280090666
30.269724 1627.4734 741 4280156203
31.339449 1627.2844 740 4280426288
32.405506 1627.0955 739 4281807941
33.467892 1626.9064 738 4282203228
34.526604 1626.7174 737 4282729572
35.58165 1626.5284 736 4283190377
36.572475 1626.1505 734 4283650928
37.680733 1626.1505 734 4283782011
38.72477 1625.9614 733 4283848060
39.765137 1625.7725 732 4283716218
40.869724 1625.7725 732 4283321460
41.904587 1625.5835 731 4282859639
42.93578 1625.3945 730 4282070123
44.036697 1625.3945 730 4281672817
45.062386 1625.2056 729 4279830613
46.161469 1625.2056 729 4281204746
47.260551 1625.2056 729 4281663505
48.2789 1625.0165 728 4283957249
49.376148 1625.0165 728 4284746253
50.388992 1624.8275 727 4286186526
51.484406 1624.8275 727 4285661206
52.491745 1624.6385 726 4286840879
53.58532 1624.6385 726 4286840879
54.678898 1624.6385 726 4287168544
55.772476 1624.6385 726 4287168544
56.866055 1624.6385 726 4286185499
57.959633 1624.6385 726 4285923352
59.053211 1624.6385 726 4283367541
60.14679 1624.6385 726 4293166079
61.240368 1624.6385 726 4290489343
62.333946 1624.6385 726 4288975867
63.427525 1624.6385 726 4286420445
64.521103 1624.6385 726 4287078631
65.614677 1624.6385 726 4286496511
66.70826 1624.6385 726 4290312447
67.801834 1624.6385 726 4291887103
69.011009 1624.8275 727 4291558143
70.223854 1625.0165 728 4290900991
71.321098 1625.0165 728 4290900991
72.41835 1625.0165 728 4291033343
73.638535 1625.2056 729 4291033343
74.862389 1625.3945 730 4290967295
75.963303 1625.3945 730 4290967295
77.064217 1625.3945 730 4290967295
78.165138 1625.3945 730 4290967295
79.398163 1625.5835 731 4290901503
80.634865 1625.7725 732 4290835711
81.875229 1625.9614 733 4290835711
83.119263 1626.1505 734 4291427839
84.506424 1626.5284 736 4291361023
85.900917 1626.9064 738 4291229439
86.873398 1626.7174 737 4291229951
87.98716 1626.7174 737 4291229951
89.100914 1626.7174 737 4291426815
29.291742 1626.9138 744 4283760668
30.269724 1626.3523 741 4283695131
31.390825 1626.3523 741 4283629574
32.405506 1625.978 739 4283760647
33.467892 1625.7908 738 4283760668
34.526604 1625.6036 737 4284088353
35.58165 1625.4165 736 4284809781
36.572475 1625.0422 734 4285072697
37.680733 1625.0422 734 4284550980
38.72477 1624.8551 733 4284419650
39.765137 1624.6678 732 4285271886
40.869724 1624.6678 732 4284088381
41.904587 1624.4807 731 4285005875
42.93578 1624.2936 730 4285005875
44.036697 1624.2936 730 4285726786
45.137615 1624.2936 730 4285595713
46.161469 1624.1064 729 4285988888
47.260551 1624.1064 729 4286578721
48.2789 1623.9193 728 4287168565
49.376148 1623.9193 728 4287758398
50.388992 1623.7321 727 4287758633
51.484406 1623.7321 727 4287234081
52.579815 1623.7321 727 4287299640
53.675228 1623.7321 727 4287168566
54.678898 1623.5449 726 4287299620
55.772476 1623.5449 726 4286971935
56.866055 1623.5449 726 4285268011
57.959633 1623.5449 726 4286251066
59.053211 1623.5449 726 4286073769
60.14679 1623.5449 726 4291468796
61.240368 1623.5449 726 4290428927
62.333946 1623.5449 726 4289244415
63.427525 1623.5449 726 4285436357
64.521103 1623.5449 726 4286094287
65.614677 1623.5449 726 4286822911
66.70826 1623.5449 726 4290902015
67.915596 1623.7321 727 4291690495
69.011009 1623.7321 727 4291164415
70.223854 1623.9193 728 4290180095
71.321098 1623.9193 728 4290443263
72.539452 1624.1064 729 4290836479
73.638535 1624.1064 729 4290770687
74.737617 1624.1064 729 4290705407
75.963303 1624.2936 730 4290771199
77.064217 1624.2936 730 4290967295
78.165138 1624.2936 730 4290967295
79.398163 1624.4807 731 4291098367
80.634865 1624.6678 732 4291098367
82.011009 1625.0422 734 4291098367
83.119263 1625.0422 734 4291229951
84.645874 1625.6036 737 4291164159
85.900917 1625.7908 738 4291164159
86.873398 1625.6036 737 4291229951
87.98716 1625.6036 737 4291229951
89.100914 1625.6036 737 4290836479
29.196331 1625.4165 742 4284219424
30.269724 1625.2312 741 4284350497
31.390825 1625.2312 741 4284153863
32.405506 1624.8606 739 4284219400
33.522934 1624.8606 739 4284481554
34.583485 1624.6753 738 4284350481
35.58165 1624.3046 736 4284350469
36.693577 1624.3046 736 4284284931
37.680733 1623.934 734 4284481560
38.72477 1623.7487 733 4284481560
39.831192 1623.7487 733 4284743708
40.937614 1623.7487 733 4284809246
41.974312 1623.5634 732 4285595659
43.007339 1623.3779 731 4285857806
44.036697 1623.1926 730 4286316581
45.137615 1623.1926 730 4286447655
46.238533 1623.1926 730 4286775368
47.339451 1623.1926 730 4288219486
48.359634 1623.0073 729 4288092502
49.458717 1623.0073 729 4288158295
50.473396 1622.822 728 4287628337
51.484406 1622.6367 727 4287234091
52.579815 1622.6367 727 4287103027
53.675228 1622.6367 727 4287103027
54.770641 1622.6367 727 4286971933
55.866055 1622.6367 727 4287037470
56.961468 1622.6367 727 4286127466
58.056881 1622.6367 727 4293824990
59.152294 1622.6367 727 4291279359
60.247707 1622.6367 727 4291147775
61.343121 1622.6367 727 4290102015
62.438534 1622.6367 727 4289641471
63.533943 1622.6367 727 4285829069
64.521103 1622.4514 726 4286026191
65.72477 1622.6367 727 4287152127
66.820183 1622.6367 727 4291033855
67.915596 1622.6367 727 4291690495
69.011009 1622.6367 727 4290967295
70.223854 1622.822 728 4290704895
71.321098 1622.822 728 4290836479
72.539452 1623.0073 729 4290901503
73.638535 1623.0073 729 4290835711
74.737617 1623.0073 729 4291164159
75.963303 1623.1926 730 4291229951
77.064217 1623.1926 730 4291230207
78.165138 1623.1926 730 4291427583
79.398163 1623.3779 731 4291361023
80.634865 1623.5634 732 4291229695
81.875229 1623.7487 733 4291229695
83.119263 1623.934 734 4291163903
84.645874 1624.4899 737 4291163647
85.900917 1624.6753 738 4291361023
86.873398 1624.4899 737 4291098367
88.132111 1624.6753 738 4291098367
89.247704 1624.6753 738 4290967551
30.269724 1624.1101 741 4284809234
31.390825 1624.1101 741 4285267991
32.458717 1623.9266 740 4285333528
33.522934 1623.7432 739 4285530145
34.583485 1623.5596 738 4285530145
35.640366 1623.3761 737 4285595659
36.693577 1623.1926 736 4285726733
37.805504 1623.1926 736 4286054428
38.78899 1622.8257 734 4286054428
39.831192 1622.6422 733 4286054430
40.937614 1622.6422 733 4286119967
42.044037 1622.6422 733 4286578715
43.078899 1622.4587 732 4286709789
44.110092 1622.2753 731 4286644263
45.137615 1622.0918 730 4286840873
46.238533 1622.0918 730 4287234108
47.339451 1622.0918 730 4288284747
48.359634 1621.9082 729 4287632718
49.458717 1621.9082 729 4287632718
50.557796 1621.9082 729 4287365176
51.570641 1621.7247 728 4286840880
52.667889 1621.7247 728 4287168565
53.675228 1621.5413 727 4287168565
54.770641 1621.5413 727 4287037481
55.866055 1621.5413 727 4286840871
56.961468 1621.5413 727 4285610864
58.056881 1621.5413 727 4291861198
59.152294 1621.5413 727 4290758399
60.348625 1621.7247 728 4289903103
61.343121 1621.5413 727 4289705983
62.438534 1621.5413 727 4288192760
63.533943 1621.5413 727 4285695906
64.629356 1621.5413 727 4287077559
65.72477 1621.5413 727 4288595455
66.820183 1621.5413 727 4291687935
68.029358 1621.7247 728 4291428351
69.126602 1621.7247 728 4290901759
70.223854 1621.7247 728 4290901503
71.440369 1621.9082 729 4290901503
72.539452 1621.9082 729 4290835711
73.638535 1621.9082 729 4290901503
74.862389 1622.0918 730 4291361023
76.089905 1622.2753 731 4291229695
77.192657 1622.2753 731 4290836735
78.29541 1622.2753 731 4291165439
79.530273 1622.4587 732 4291295999
80.768806 1622.6422 733 4291230207
82.011009 1622.8257 734 4291163647
83.394493 1623.1926 736 4291163647
84.645874 1623.3761 737 4291098367
85.900917 1623.5596 738 4291098367
87.01651 1623.5596 738 4290835711
88.132111 1623.5596 738 4291033343
28.394495 1624.4421 749 4283304215
29.387156 1623.8972 746 4284547090
30.319265 1623.1707 742 4284874775
31.442202 1623.1707 742 4285464609
32.511925 1622.989 741 4285530146
33.57798 1622.8074 740 4285792295
34.640366 1622.6257 739 4285792295
35.640366 1622.2623 737 4286119961
36.754128 1622.2623 737 4286119961
37.805504 1622.0807 736 4286119977
38.78899 1621.7174 734 4286119977
39.897247 1621.7174 734 4286447654
40.937614 1621.5358 733 4286578728
42.044037 1621.5358 733 4286775344
43.078899 1621.3541 732 4286906418
44.110092 1621.1725 731 4287170341
45.212845 1621.1725 731 4287301927
46.238533 1620.9908 730 4287300933
47.339451 1620.9908 730 4287630154
48.440369 1620.9908 730 4287435071
49.458717 1620.8092 729 4287369278
50.557796 1620.8092 729 4287498288
51.656879 1620.8092 729 4286709797
52.667889 1620.6276 728 4286775355
53.765137 1620.6276 728 4286775355
54.862385 1620.6276 728 4286840887
55.959633 1620.6276 728 4286644277
57.056881 1620.6276 728 4284947541
58.154129 1620.6276 728 4292184515
59.251377 1620.6276 728 4290888435
60.348625 1620.6276 728 4290625264
61.445873 1620.6276 728 4290230783
62.543118 1620.6276 728 4285625289
63.640366 1620.6276 728 4281887144
64.737617 1620.6276 728 4287347963
65.834862 1620.6276 728 4288862719
66.932114 1620.6276 728 4291362559
68.029358 1620.6276 728 4291821567
69.242203 1620.8092 729 4291361279
70.341286 1620.8092 729 4291361023
71.440369 1620.8092 729 4291361023
72.539452 1620.8092 729 4291361023
73.761467 1620.9908 730 4291361023
74.862389 1620.9908 730 4291427071
76.089905 1621.1725 731 4291361023
77.192657 1621.1725 731 4291229695
78.42569 1621.3541 732 4291426815
79.662384 1621.5358 733 4291427071
80.902756 1621.7174 734 4291427071
82.41835 1622.2623 737 4291361023
83.532112 1622.2623 737 4291163647
84.785324 1622.4441 738 4290901503
85.900917 1622.4441 738 4290901503
87.01651 1622.4441 738 4290704895
29.482569 1623.1266 748 4284809223
30.517431 1622.767 746 4285333519
31.442202 1622.0477 742 4285530145
32.565136 1622.0477 742 4285726755
33.633026 1621.8679 741 4285792298
34.640366 1621.5083 739 4286054445
35.699081 1621.3285 738 4286185514
36.814678 1621.3285 738 4286185514
37.867889 1621.1487 737 4286316570
38.917431 1620.9688 736 4286447644
39.897247 1620.6091 734 4286644267
41.005505 1620.6091 734 4286513194
42.044037 1620.4293 733 4286775342
43.078899 1620.2495 732 4286775342
44.183487 1620.2495 732 4286972474
45.212845 1620.0697 731 4287367232
46.315598 1620.0697 731 4287368515
47.41835 1620.0697 731 4287302722
48.440369 1619.8899 730 4287629636
49.541283 1619.8899 730 4288024394
50.6422 1619.8899 730 4287630406
51.656879 1619.7101 729 4286775352
52.755962 1619.7101 729 4287103035
53.765137 1619.5303 728 4287037497
54.954128 1619.7101 729 4286840883
55.959633 1619.5303 728 4286513199
57.056881 1619.5303 728 4283826242
58.154129 1619.5303 728 4292444613
59.251377 1619.5303 728 4290164223
60.348625 1619.5303 728 4289769215
61.445873 1619.5303 728 4290163179
62.543118 1619.5303 728 4285360290
63.640366 1619.5303 728 4278605716
64.737617 1619.5303 728 4286369279
65.834862 1619.5303 728 4289652735
67.044037 1619.7101 729 4291362815
68.14312 1619.7101 729 4291690239
69.242203 1619.7101 729 4291361023
70.341286 1619.7101 729 4291361023
71.559631 1619.8899 730 4291426815
72.660553 1619.8899 730 4291230207
73.761467 1619.8899 730 4291230207
74.862389 1619.8899 730 4291492351
76.089905 1620.0697 731 4291558143
77.321098 1620.2495 732 4291558143
78.555962 1620.4293 733 4291492351
79.794495 1620.6091 734 4291361023
81.170639 1620.9688 736 4291426815
82.554131 1621.3285 738 4291361023
83.669724 1621.3285 738 4291229695
84.924774 1621.5083 739 4290901503
86.042198 1621.5083 739 4290967295
88.590828 1623.3064 749 4290508543
29.577982 1622.3486 750 4284547072
30.616514 1621.9927 748 4285202432
31.647707 1621.6367 746 4285661221
32.618347 1621.1028 743 4285726758
33.688072 1620.9248 742 4285923370
34.697247 1620.5688 740 4286054444
35.757797 1620.3909 739 4286382120
36.814678 1620.2129 738 4286382120
37.930275 1620.2129 738 4286644251
38.981651 1620.0349 737 4286907167
40.029358 1619.8569 736 4286775844
41.005505 1619.501 734 4286447648
42.113762 1619.501 734 4286644268
43.150459 1619.323 733 4286644268
44.183487 1619.1449 732 4286840889
45.288074 1619.1449 732 4287103038
46.315598 1618.9669 731 4287103045
47.41835 1618.9669 731 4287825743
48.440369 1618.7889 730 4287434308
49.541283 1618.7889 730 4288552533
50.6422 1618.7889 730 4287894089
51.743118 1618.7889 730 4286972987
52.844036 1618.7889 730 4286906436
53.855045 1618.611 729 4286578751
54.954128 1618.611 729 4286840898
56.053211 1618.611 729 4286578749
57.056881 1618.433 728 4284481592
58.251377 1618.611 729 4293295806
59.251377 1618.433 728 4290422527
60.449543 1618.611 729 4287198690
61.445873 1618.433 728 4285097107
62.543118 1618.433 728 4284439177
63.640366 1618.433 728 4281099952
64.845871 1618.611 729 4288139775
65.944954 1618.611 729 4290900991
67.044037 1618.611 729 4291756031
68.14312 1618.611 729 4291427583
69.242203 1618.611 729 4290835455
70.458717 1618.7889 730 4291099391
71.559631 1618.7889 730 4291690495
72.660553 1618.7889 730 4291230719
73.884407 1618.9669 731 4291033343
74.98716 1618.9669 731 4291361023
76.216515 1619.1449 732 4291426815
77.449539 1619.323 733 4291427071
78.686241 1619.501 734 4291427071
80.058716 1619.8569 736 4291427071
81.43853 1620.2129 738 4291558655
82.689911 1620.3909 739 4291689727
83.944954 1620.5688 740 4291821311
85.064217 1620.5688 740 4291492863
86.183487 1620.5688 740 4291492863
88.590828 1622.1707 749 4291427071
89.726608 1622.1707 749 4291558655
27.522936 1622.0918 755 4286859897
28.623854 1621.9156 754 4282386229
29.625689 1621.3872 751 4284874761
30.666056 1621.0349 749 4285333520
31.750458 1620.8588 748 4285661221
32.72477 1620.3303 745 4285857833
33.798164 1620.1542 744 4286054439
34.811008 1619.8019 742 4286447660
35.816513 1619.4496 740 4286382119
36.875229 1619.2734 739 4286447656
37.992661 1619.2734 739 4286382113
39.045872 1619.0973 738 4286645028
40.095413 1618.9211 737 4286644269
41.141285 1618.745 736 4286578732
42.253212 1618.745 736 4286775340
43.222019 1618.3927 734 4286644266
44.256882 1618.2166 733 4286906419
45.363304 1618.2166 733 4287234103
46.392662 1618.0404 732 4287365171
47.49725 1618.0404 732 4287956541
48.440369 1617.6881 730 4287302972
49.541283 1617.6881 730 4288552783
50.6422 1617.6881 730 4287898464
51.743118 1617.6881 730 4286648653
52.844036 1617.6881 730 4287234114
53.944954 1617.6881 730 4286906429
55.045872 1617.6881 730 4287103024
56.053211 1617.512 729 4286775340
57.152294 1617.512 729 4285923372
58.251377 1617.512 729 4294012838
59.35046 1617.512 729 4289634283
60.449543 1617.512 729 4285357738
61.548622 1617.512 729 4283381376
62.647705 1617.512 729 4285486496
63.746788 1617.512 729 4282937527
64.845871 1617.512 729 4289517055
65.944954 1617.512 729 4291097599
67.15596 1617.6881 730 4291623935
68.256882 1617.6881 730 4291033855
69.357796 1617.6881 730 4290770943
70.458717 1617.6881 730 4291230719
71.678902 1617.8643 731 4291493887
72.781654 1617.8643 731 4290837759
74.007339 1618.0404 732 4290837759
75.111923 1618.0404 732 4291230207
76.343117 1618.2166 733 4291230207
77.57798 1618.3927 734 4291164159
78.946793 1618.745 736 4291295999
80.190826 1618.9211 737 4291492863
81.43853 1619.0973 738 4291492863
82.825691 1619.4496 740 4291295999
84.082565 1619.6257 741 4291295999
85.203667 1619.6257 741 4291033855
86.324768 1619.6257 741 4291099647
88.733948 1621.2111 750 4291492863
89.871559 1621.2111 750 4291492863
26.46055 1621.2936 757 4283891720
27.522936 1620.9449 755 4284350491
28.623854 1620.7706 754 4284481566
29.673395 1620.422 752 4285202461
30.765137 1620.2477 751 4285267998
31.801834 1619.899 749 4285857823
32.777981 1619.3761 746 4285923360
33.85321 1619.2018 745 4286119971
34.867889 1618.8533 743 4286513193
35.933945 1618.679 742 4286447644
36.93578 1618.3303 740 4286578718
37.992661 1618.156 739 4286513177
39.110092 1618.156 739 4286513177
40.161469 1617.9817 738 4286644268
41.277065 1617.9817 738 4286578730
42.322937 1617.8074 737 4286840873
43.365139 1617.6331 736 4286840873
44.330276 1617.2844 734 4287168564
45.363304 1617.1101 733 4288744524
46.469727 1617.1101 733 4287630125
47.49725 1616.9358 732 4287103780
48.521099 1616.7615 731 4287564082
49.623852 1616.7615 731 4290261594
50.726604 1616.7615 731 4289084778
51.829357 1616.7615 731 4287571539
52.93211 1616.7615 731 4287434571
53.944954 1616.5872 730 4286185529
55.045872 1616.5872 730 4286447652
56.14679 1616.5872 730 4286644262
57.247707 1616.5872 730 4285661215
58.348625 1616.5872 730 4287040820
59.35046 1616.4128 729 4285347689
60.550457 1616.5872 730 4285808240
61.548622 1616.4128 729 4284501920
62.752293 1616.5872 730 4285949366
63.85321 1616.5872 730 4282612409
64.954132 1616.5872 730 4289191935
66.055046 1616.5872 730 4291688959
67.15596 1616.5872 730 4291951871
68.256882 1616.5872 730 4291230207
69.357796 1616.5872 730 4291164415
70.576149 1616.7615 731 4291428351
71.678902 1616.7615 731 4291690495
72.902756 1616.9358 732 4291427839
74.007339 1616.9358 732 4291559167
75.236694 1617.1101 733 4291427071
76.343117 1617.1101 733 4291492863
77.834862 1617.6331 736 4291821311
79.077065 1617.8074 737 4291821311
80.322937 1617.9817 738 4291427071
81.572479 1618.156 739 4291427071
82.961472 1618.5046 741 4291164415
84.220184 1618.679 742 4291164415
85.343117 1618.679 742 4290968063
86.466057 1618.679 742 4290968063
88.877068 1620.2477 751 4291230207
90.01651 1620.2477 751 4291164415
91.009171 1620.0734 750 4291361023
26.46055 1620.1431 757 4284678160
27.522936 1619.7982 755 4285005852
28.623854 1619.6257 754 4285071390
29.721102 1619.4532 753 4285464606
30.765137 1619.1083 751 4285530143
31.85321 1618.9358 750 4285661215
32.884403 1618.5908 748 4285661215
33.85321 1618.0734 745 4285988895
34.867889 1617.7284 743 4286447654
35.992661 1617.7284 743 4286316582
36.93578 1617.2111 740 4286447656
38.055046 1617.2111 740 4286578729
39.110092 1617.0386 739 4286578729
40.227524 1617.0386 739 4286840883
41.277065 1616.8661 738 4286840883
42.392662 1616.8661 738 4286971944
43.436699 1616.6936 737 4287037481
44.477066 1616.5211 736 4287103031
45.438534 1616.1761 734 4287889474
46.469727 1616.0037 733 4287169853
47.576145 1616.0037 733 4286644277
48.601833 1615.8312 732 4287760693
49.706421 1615.8312 732 4290589792
50.726604 1615.6587 731 4289546876
51.829357 1615.6587 731 4287638878
52.93211 1615.6587 731 4288159825
53.944954 1615.4862 730 4286317621
55.045872 1615.4862 730 4286578739
56.14679 1615.4862 730 4287365183
57.247707 1615.4862 730 4286252862
58.348625 1615.4862 730 4287108171
59.35046 1615.3137 729 4285212257
60.550457 1615.4862 730 4286791290
61.548622 1615.3137 729 4285224605
62.752293 1615.4862 730 4286409135
63.85321 1615.4862 730 4283532750
64.954132 1615.4862 730 4289783039
66.055046 1615.4862 730 4291361791
67.267891 1615.6587 731 4291558911
68.370644 1615.6587 731 4290706175
69.473396 1615.6587 731 4290837503
70.693581 1615.8312 732 4291887103
71.798164 1615.8312 732 4291887103
72.902756 1615.8312 732 4291427839
74.130272 1616.0037 733 4291559167
75.236694 1616.0037 733 4291427071
76.469727 1616.1761 734 4291492863
77.963303 1616.6936 737 4291887103
79.207336 1616.8661 738 4291755519
80.455048 1617.0386 739 4291230207
81.84037 1617.3835 741 4291427583
83.097244 1617.5559 742 4291688959
84.357796 1617.7284 743 4291557375
85.482567 1617.7284 743 4291033343
87.878899 1619.2808 752 4291099391
88.733948 1618.9358 750 4291099391
90.01651 1619.1083 751 4291099391
91.009171 1618.9358 750 4291229951
26.46055 1618.9927 757 4284350491
27.522936 1618.6514 755 4284612645
28.669725 1618.6514 755 4284809256
29.721102 1618.3101 753 4285333534
30.814678 1618.1394 752 4285464607
31.904587 1617.9688 751 4285661215
32.937614 1617.6276 749 4285661215
33.908257 1617.1156 746 4285923366
34.981651 1616.9449 745 4285988903
35.992661 1616.6036 743 4286251048
36.99633 1616.2623 741 4286316585
38.055046 1616.0918 740 4286447659
39.174313 1616.0918 740 4286578733
40.227524 1615.9211 739 4286709825
41.344955 1615.9211 739 4286578751
42.462387 1615.9211 739 4286709800
43.508255 1615.7505 738 4286709800
44.550457 1615.5798 737 4286840883
45.664219 1615.5798 737 4286775346
46.546787 1615.0679 734 4286709815
47.655045 1615.0679 734 4286709815
48.682568 1614.8972 733 4287103027
49.78899 1614.8972 733 4289928798
50.811008 1614.7266 732 4288556385
51.915596 1614.7266 732 4288227163
53.020184 1614.7266 732 4287767105
54.034863 1614.5559 731 4285990694
55.229359 1614.7266 732 4287041362
56.240368 1614.5559 731 4288883310
57.343121 1614.5559 731 4287316071
58.445873 1614.5559 731 4287513706
59.449543 1614.3854 730 4286007670
60.550457 1614.3854 730 4286007670
61.651375 1614.3854 730 4284176532
62.85688 1614.5559 731 4286610873
63.85321 1614.3854 730 4283733736
65.062386 1614.5559 731 4289589503
66.165138 1614.5559 731 4292149247
67.267891 1614.5559 731 4292149247
68.370644 1614.5559 731 4291428351
69.588989 1614.7266 732 4291362559
70.811012 1614.8972 733 4291624959
71.917435 1614.8972 733 4291559423
73.023849 1614.8972 733 4291427071
74.130272 1614.8972 733 4291427071
75.361465 1615.0679 734 4291427071
76.722939 1615.4092 736 4291427071
77.963303 1615.5798 737 4291558655
79.337616 1615.9211 739 4291492863
80.587158 1616.0918 740 4291427071
81.84037 1616.2623 741 4291887103
83.097244 1616.433 742 4291492863
84.495415 1616.7743 744 4291361023
85.482567 1616.6036 743 4291427071
87.596329 1617.7982 750 4291624447
88.877068 1617.9688 751 4291295999
90.01651 1617.9688 751 4291295999
91.009171 1617.7982 750 4291098367
27.522936 1617.5046 755 4284481566
28.669725 1617.5046 755 4284809252
29.721102 1617.167 753 4284940322
30.814678 1616.9982 752 4285005859
31.955963 1616.9982 752 4285530149
32.990826 1616.6605 750 4285530149
34.018349 1616.323 748 4285988903
35.038532 1615.9854 746 4285988903
36.051376 1615.6477 744 4286119971
37.117432 1615.4789 743 4286251046
38.179817 1615.3101 742 4286382116
39.238533 1615.1412 741 4286447653
40.293579 1614.9725 740 4286447664
41.412846 1614.9725 740 4286316591
42.532108 1614.9725 740 4286578731
43.579815 1614.8037 739 4286578731
44.623852 1614.6349 738 4286644271
45.739449 1614.6349 738 4286578734
46.777981 1614.4661 737 4287037491
47.812843 1614.2972 736 4287037491
48.763302 1613.9596 734 4286971940
49.78899 1613.7908 733 4289006658
50.811008 1613.6221 732 4288096095
51.915596 1613.6221 732 4287898716
53.020184 1613.6221 732 4286909770
54.124771 1613.6221 732 4287107406
55.229359 1613.6221 732 4286914388
56.333946 1613.6221 732 4288690798
57.438534 1613.6221 732 4286990452
58.445873 1613.4532 731 4287056245
59.548622 1613.4532 731 4285747324
60.651375 1613.4532 731 4285484408
61.754128 1613.4532 731 4283587741
62.961468 1613.6221 732 4286351047
64.066055 1613.6221 732 4284457725
65.170639 1613.6221 732 4289787135
66.27523 1613.6221 732 4291690495
67.379814 1613.6221 732 4291559167
68.598167 1613.7908 733 4291428351
69.70459 1613.7908 733 4291362559
70.811012 1613.7908 733 4291559167
71.917435 1613.7908 733 4291559167
73.144951 1613.9596 734 4291427071
74.253212 1613.9596 734 4291427071
75.361465 1613.9596 734 4291361023
76.722939 1614.2972 736 4291492863
78.091743 1614.6349 738 4291558655
79.337616 1614.8037 739 4291558655
80.587158 1614.9725 740 4291295999
81.84037 1615.1412 741 4291427839
83.233025 1615.4789 743 4290837247
84.770645 1615.9854 746 4290903039
86.737617 1616.9982 752 4291558655
87.737617 1616.8293 751 4291690239
88.877068 1616.8293 751 4291164159
90.01651 1616.8293 751 4291164159
91.15596 1616.8293 751 4290900991
27.61101 1616.6918 757 4284350505
28.669725 1616.3578 755 4284678191
29.768806 1616.1908 754 4284940328
30.814678 1615.8569 752 4284874791
31.955963 1615.8569 752 4285268012
33.044037 1615.6899 751 4285333549
34.073395 1615.356 749 4285661215
35.038532 1614.8551 746 4285726752
36.110092 1614.6881 745 4286054434
37.177982 1614.5211 744 4286185509
38.242203 1614.3541 743 4286316583
39.302753 1614.1871 742 4286119972
40.42569 1614.1871 742 4286119948
41.548622 1614.1871 742 4286316559
42.601833 1614.0201 741 4286447656
43.651375 1613.8533 740 4286644266
44.697247 1613.6863 739 4286578747
45.814678 1613.6863 739 4286447673
46.855045 1613.5193 738 4286578739
47.891743 1613.3523 737 4286840887
48.92477 1613.1853 736 4286513207
49.871559 1612.8513 734 4286447670
50.895412 1612.6844 733 4286513240
52.001835 1612.6844 733 4287629162
53.108257 1612.6844 733 4287110738
54.124771 1612.5175 732 4287834204
55.321102 1612.6844 733 4287314261
56.427525 1612.6844 733 4287972190
57.533943 1612.6844 733 4286990452
58.543118 1612.5175 732 4286793329
59.647705 1612.5175 732 4285155707
60.752293 1612.5175 732 4286011016
61.85688 1612.5175 732 4284311980
63.066055 1612.6844 733 4287930595
64.066055 1612.5175 732 4285969151
65.2789 1612.6844 733 4290376959
66.385323 1612.6844 733 4292411391
67.603668 1612.8513 734 4291755263
68.711929 1612.8513 734 4291362559
69.820183 1612.8513 734 4291362559
70.928444 1612.8513 734 4291689727
72.036697 1612.8513 734 4291755519
73.387154 1613.1853 736 4291755519
74.499084 1613.1853 736 4291558399
75.611008 1613.1853 736 4291492863
76.976151 1613.5193 738 4291821567
78.220184 1613.6863 739 4291887103
79.598167 1614.0201 741 4291887103
80.719269 1614.0201 741 4291361791
81.974312 1614.1871 742 4291361791
83.911926 1615.189 748 4291492863
85.183487 1615.356 749 4291492863
86.458717 1615.5229 750 4291492863
87.737617 1615.6899 751 4291624447
88.877068 1615.6899 751 4291163647
90.01651 1615.6899 751 4291163647
91.15596 1615.6899 751 4290835711
28.669725 1615.2111 755 4284481575
29.768806 1615.0459 754 4284743714
30.86422 1614.8807 753 4284743714
