# .PCD v0.7 - Point Cloud Data file format
VERSION 0.7
FIELDS x y z rgb
SIZE 4 4 4 4
TYPE F F F U
COUNT 1 1 1 1
WIDTH 1373
HEIGHT 1
VIEWPOINT 0 0 0 1 0 0 0
POINTS 1373
DATA ascii
79.563301 1617.7211 724 4291164159
80.788994 1617.899 725 4291098367
82.15596 1618.255 727 4290967039
83.390823 1618.433 728 4291359999
84.488075 1618.433 728 4291754751
85.728439 1618.611 729 4291622655
86.827522 1618.611 729 4291885567
87.926605 1618.611 729 4291360511
89.174309 1618.7889 730 4291294719
90.27523 1618.7889 730 4291492351
27.844036 1618.9211 737 4284120720
28.957798 1618.9211 737 4284581273
30.022018 1618.745 736 4284449686
31.031193 1618.3927 734 4284383139
32.086239 1618.2166 733 4284251297
33.082569 1617.8643 731 4284316077
34.128441 1617.6881 730 4284645042
35.170643 1617.512 729 4284252333
36.148624 1617.1597 727 4284844470
37.244038 1617.1597 727 4284321471
38.27523 1616.9835 726 4286097626
39.302753 1616.8074 725 4287411430
40.394497 1616.8074 725 4289187583
41.416515 1616.6312 724 4292796671
42.434864 1616.4551 723 4294572799
43.522934 1616.4551 723 4294967295
44.535778 1616.2789 722 4294967295
45.622017 1616.2789 722 4294967295
46.708256 1616.2789 722 4294967295
47.71376 1616.1028 721 4294967295
48.798164 1616.1028 721 4292340456
49.798164 1615.9266 720 4284528120
50.880733 1615.9266 720 4283014624
51.963303 1615.9266 720 4284174983
52.955963 1615.7505 719 4282266986
54.036697 1615.7505 719 4286382124
55.117432 1615.7505 719 4286316587
56.198166 1615.7505 719 4287037449
57.2789 1615.7505 719 4287102986
58.359634 1615.7505 719 4286251031
59.440369 1615.7505 719 4292496757
60.521099 1615.7505 719 4289889221
61.49725 1615.5743 718 4288047017
62.682568 1615.7505 719 4286071135
63.763302 1615.7505 719 4283571001
64.84404 1615.7505 719 4280632212
65.924774 1615.7505 719 4290567167
67.005501 1615.7505 719 4292213503
68.086235 1615.7505 719 4292016127
69.166969 1615.7505 719 4291426815
70.366974 1615.9266 720 4291426815
71.449539 1615.9266 720 4290639615
72.655045 1616.1028 721 4290771199
73.739449 1616.1028 721 4291557375
74.823853 1616.1028 721 4291557375
76.036697 1616.2789 722 4291229695
77.253212 1616.4551 723 4291426815
78.341286 1616.4551 723 4291558655
79.563301 1616.6312 724 4291427071
80.924774 1616.9835 726 4290835711
82.15596 1617.1597 727 4290901503
83.390823 1617.3358 728 4291163903
84.629356 1617.512 729 4291492607
85.728439 1617.512 729 4291361023
86.972481 1617.6881 730 4291492607
87.926605 1617.512 729 4291098367
89.174309 1617.6881 730 4290967039
90.27523 1617.6881 730 4291097855
27.889908 1617.9817 738 4282723414
28.957798 1617.8074 737 4283256169
30.022018 1617.6331 736 4284900993
31.031193 1617.2844 734 4286151565
32.086239 1617.1101 733 4286414736
33.082569 1616.7615 731 4286284218
34.128441 1616.5872 730 4287073991
35.170643 1616.4128 729 4286812350
36.209175 1616.2385 728 4287865294
37.244038 1616.0642 727 4287800290
38.27523 1615.8899 726 4289050356
39.302753 1615.7156 725 4289444351
40.394497 1615.7156 725 4290694143
41.416515 1615.5413 724 4290624255
42.434864 1615.3669 723 4290229759
43.522934 1615.3669 723 4288524031
44.535778 1615.1926 722 4286879471
45.622017 1615.1926 722 4282811353
46.708256 1615.1926 722 4279916718
47.71376 1615.0183 721 4278204805
48.798164 1615.0183 721 4278195296
49.798164 1614.844 720 4278386764
50.880733 1614.844 720 4278845523
51.963303 1614.844 720 4283564039
53.045872 1614.844 720 4284284946
54.036697 1614.6697 719 4286316575
55.117432 1614.6697 719 4286382113
56.198166 1614.6697 719 4287103004
57.2789 1614.6697 719 4287168541
58.359634 1614.6697 719 4286644238
59.440369 1614.6697 719 4288876848
60.521099 1614.6697 719 4287903626
61.601833 1614.6697 719 4287574662
62.78899 1614.844 720 4285933069
63.763302 1614.6697 719 4285143296
64.84404 1614.6697 719 4281425071
65.924774 1614.6697 719 4290438655
67.119263 1614.844 720 4292804607
68.201836 1614.844 720 4292015871
69.284401 1614.844 720 4291427071
70.486237 1615.0183 721 4291427071
71.570641 1615.0183 721 4291229695
72.655045 1615.0183 721 4291229695
73.86422 1615.1926 722 4291491327
74.950462 1615.1926 722 4291491327
76.036697 1615.1926 722 4291557119
77.253212 1615.3669 723 4291557119
78.473396 1615.5413 724 4291688959
79.69725 1615.7156 725 4291688959
80.924774 1615.8899 726 4291163647
82.293579 1616.2385 728 4291361023
83.530273 1616.4128 729 4291360511
84.629356 1616.4128 729 4291557887
85.871559 1616.5872 730 4291688959
86.972481 1616.5872 730 4291820799
87.926605 1616.4128 729 4291229695
89.174309 1616.5872 730 4291163903
27.844036 1616.6936 737 4283564032
28.957798 1616.6936 737 4284092457
30.022018 1616.5211 736 4285342267
31.133945 1616.5211 736 4284498528
32.086239 1616.0037 733 4285682803
33.137615 1615.8312 732 4284571528
34.128441 1615.4862 730 4285558424
35.170643 1615.3137 729 4284642712
36.209175 1615.1412 728 4285629607
37.244038 1614.9688 727 4285563832
38.27523 1614.7964 726 4285892797
39.302753 1614.6239 725 4286614720
40.394497 1614.6239 725 4286483135
41.416515 1614.4514 724 4286481854
42.57798 1614.6239 725 4285560752
43.522934 1614.2789 723 4285294513
44.535778 1614.1064 722 4282597001
45.622017 1614.1064 722 4284622213
46.708256 1614.1064 722 4282056797
47.71376 1613.934 721 4284874813
48.798164 1613.934 721 4284874813
49.882568 1613.934 721 4285988897
50.966972 1613.934 721 4286054434
51.963303 1613.7615 720 4286578693
53.045872 1613.7615 720 4286709767
54.128441 1613.7615 720 4286906394
55.117432 1613.589 719 4286840857
56.293579 1613.7615 720 4286971932
57.376148 1613.7615 720 4287168542
58.359634 1613.589 719 4286971947
59.440369 1613.589 719 4288415041
60.521099 1613.589 719 4287434849
61.601833 1613.589 719 4286382161
62.78899 1613.7615 720 4284481536
63.871559 1613.7615 720 4286386708
64.954132 1613.7615 720 4284314825
66.036697 1613.7615 720 4292012287
67.119263 1613.7615 720 4292411391
68.201836 1613.7615 720 4291754239
69.401833 1613.934 721 4291427071
70.486237 1613.934 721 4291492863
71.570641 1613.934 721 4291426559
72.777985 1614.1064 722 4291426559
73.86422 1614.1064 722 4291426303
74.950462 1614.1064 722 4291426303
76.165138 1614.2789 723 4291557375
77.383484 1614.4514 724 4291557375
78.473396 1614.4514 724 4291426559
79.831192 1614.7964 726 4291426559
80.924774 1614.7964 726 4291164159
82.293579 1615.1412 728 4291229951
83.530273 1615.3137 729 4291164415
84.770645 1615.4862 730 4291361791
85.871559 1615.4862 730 4291492863
86.972481 1615.4862 730 4291624447
88.073395 1615.4862 730 4291427071
89.322937 1615.6587 731 4291361023
28.957798 1615.5798 737 4283367424
30.07156 1615.5798 737 4283367424
31.133945 1615.4092 736 4282843140
32.13945 1615.0679 734 4282515456
33.192661 1614.8972 733 4281991174
34.185322 1614.5559 731 4281991174
35.229359 1614.3854 730 4281860103
36.269726 1614.2147 729 4282318862
37.244038 1613.8734 727 4281466908
38.27523 1613.7028 726 4281008149
39.368809 1613.7028 726 4281204764
40.394497 1613.5321 725 4281401375
41.48624 1613.5321 725 4281270282
42.57798 1613.5321 725 4281073670
43.596329 1613.3615 724 4281794569
44.611008 1613.1908 723 4281925643
45.622017 1613.0201 722 4283498505
46.708256 1613.0201 722 4283760654
47.794495 1613.0201 722 4285399060
48.798164 1612.8495 721 4285726744
49.882568 1612.8495 721 4286644231
50.966972 1612.8495 721 4286971915
52.051376 1612.8495 721 4287168517
53.13578 1612.8495 721 4287168517
54.128441 1612.679 720 4287103005
55.21101 1612.679 720 4286971932
56.293579 1612.679 720 4286971919
57.376148 1612.679 720 4287168531
58.458717 1612.679 720 4286971951
59.541283 1612.679 720 4286971951
60.521099 1612.5083 719 4286709804
61.601833 1612.5083 719 4286513193
62.78899 1612.679 720 4283498524
63.871559 1612.679 720 4289482616
64.954132 1612.679 720 4284848106
66.036697 1612.679 720 4291427327
67.233025 1612.8495 721 4292214783
68.317429 1612.8495 721 4291623423
69.401833 1612.8495 721 4291492863
70.605507 1613.0201 722 4291690239
71.691742 1613.0201 722 4291229695
72.777985 1613.0201 722 4291163903
73.86422 1613.0201 722 4291361023
74.950462 1613.0201 722 4291492607
76.165138 1613.1908 723 4291557375
77.383484 1613.3615 724 4291491583
78.473396 1613.3615 724 4291491583
79.831192 1613.7028 726 4291491583
81.060547 1613.8734 727 4291164415
82.293579 1614.0441 728 4291558911
83.530273 1614.2147 729 4291492863
84.770645 1614.3854 730 4291492863
85.871559 1614.3854 730 4291427071
86.972481 1614.3854 730 4291624447
88.073395 1614.3854 730 4291427071
28.957798 1614.4661 737 4284743680
30.07156 1614.4661 737 4284874753
31.133945 1614.2972 736 4285071373
32.13945 1613.9596 734 4285005836
33.192661 1613.7908 733 4285071370
34.185322 1613.4532 731 4285267980
35.229359 1613.2844 730 4285530130
36.269726 1613.1156 729 4285464592
37.306423 1612.9468 728 4285399049
38.403671 1612.9468 728 4285530124
39.434864 1612.778 727 4285530134
40.462387 1612.6091 726 4285530134
41.48624 1612.4404 725 4285792286
42.64954 1612.6091 726 4285792286
43.596329 1612.2716 724 4285923333
44.686237 1612.2716 724 4286185481
45.699081 1612.1028 723 4286251036
46.787155 1612.1028 723 4286316573
47.794495 1611.934 722 4286906384
48.880733 1611.934 722 4287365143
49.966972 1611.934 722 4287496253
50.966972 1611.7651 721 4287430716
52.051376 1611.7651 721 4287299620
53.13578 1611.7651 721 4287103009
54.128441 1611.5963 720 4287168554
55.21101 1611.5963 720 4287168554
56.293579 1611.5963 720 4286971932
57.473396 1611.7651 721 4287103005
58.458717 1611.5963 720 4287037484
59.440369 1611.4275 719 4287037484
60.521099 1611.4275 719 4286709806
61.601833 1611.4275 719 4286709806
62.78899 1611.5963 720 4282908741
63.871559 1611.5963 720 4290277301
64.954132 1611.5963 720 4286099199
66.036697 1611.5963 720 4290968063
67.233025 1611.7651 721 4291690239
68.317429 1611.7651 721 4291361023
69.519264 1611.934 722 4291427071
70.605507 1611.934 722 4291492863
71.691742 1611.934 722 4291427071
72.777985 1611.934 722 4291163903
73.86422 1611.934 722 4291098367
74.950462 1611.934 722 4291295999
76.165138 1612.1028 723 4291361023
77.383484 1612.2716 724 4291361023
78.473396 1612.2716 724 4291623167
79.831192 1612.6091 726 4291557375
80.924774 1612.6091 726 4290901759
82.293579 1612.9468 728 4291230463
83.669724 1613.2844 730 4291558655
84.770645 1613.2844 730 4291558655
86.014679 1613.4532 731 4291230207
86.972481 1613.2844 730 4291295999
87.926605 1613.1156 729 4291427071
29.005505 1613.5193 738 4284743682
30.07156 1613.3523 737 4284940293
31.185322 1613.3523 737 4285071388
32.245872 1613.1853 736 4285267998
33.192661 1612.6844 733 4285399069
34.185322 1612.3505 731 4285464606
35.288074 1612.3505 731 4285857823
36.330276 1612.1835 730 4285792286
37.368809 1612.0165 729 4285988886
38.403671 1611.8495 728 4285988886
39.500916 1611.8495 728 4286119964
40.462387 1611.5156 726 4286119964
41.625687 1611.6826 727 4286119970
42.64954 1611.5156 726 4286119970
43.669724 1611.3486 725 4286316544
44.686237 1611.1816 724 4286513155
45.699081 1611.0146 723 4286447656
46.787155 1611.0146 723 4286447656
47.875229 1611.0146 723 4286644261
48.880733 1610.8477 722 4289535825
49.966972 1610.8477 722 4288030043
50.966972 1610.6808 721 4287371856
52.13945 1610.8477 722 4287496253
53.13578 1610.6808 721 4286906419
54.220184 1610.6808 721 4287234095
55.304588 1610.6808 721 4287168558
56.388992 1610.6808 721 4286971940
57.473396 1610.6808 721 4287103013
58.458717 1610.5138 720 4287037490
59.541283 1610.5138 720 4286971953
60.521099 1610.3468 719 4286316591
61.601833 1610.3468 719 4287234109
62.78899 1610.5138 720 4283377772
63.979816 1610.6808 721 4290549465
65.064217 1610.6808 721 4286560255
66.148621 1610.6808 721 4290968319
67.233025 1610.6808 721 4292214527
68.317429 1610.6808 721 4291556863
69.519264 1610.8477 722 4291557375
70.605507 1610.8477 722 4291688959
71.691742 1610.8477 722 4291688959
72.777985 1610.8477 722 4291557375
73.988991 1611.0146 723 4291492351
75.077065 1611.0146 723 4292149247
76.293579 1611.1816 724 4292280319
77.513763 1611.3486 725 4292214527
78.605507 1611.3486 725 4291492351
79.831192 1611.5156 726 4291492351
81.060547 1611.6826 727 4291492351
82.43119 1612.0165 729 4291426559
83.948624 1612.5175 732 4291492863
84.911926 1612.3505 731 4292083711
86.157799 1612.5175 732 4291362047
87.262383 1612.5175 732 4291296255
88.954132 1613.1853 736 4291952639
90.363304 1613.5193 738 4292149247
31.185322 1612.2385 737 4285267990
32.245872 1612.0734 736 4285464602
33.192661 1611.578 733 4285595671
34.242203 1611.4128 732 4285661208
35.288074 1611.2477 731 4285792277
36.330276 1611.0825 730 4285857814
37.368809 1610.9175 729 4286251011
38.467892 1610.9175 729 4286382085
39.500916 1610.7523 728 4286382095
40.530273 1610.5872 727 4286382095
41.555962 1610.422 726 4286316547
42.64954 1610.422 726 4286578694
43.669724 1610.2568 725 4286447635
44.761467 1610.2568 725 4286447635
45.776146 1610.0918 724 4286447662
46.866055 1610.0918 724 4286578735
47.875229 1609.9266 723 4286578731
48.963303 1609.9266 723 4288746573
49.966972 1609.7615 722 4287767887
51.053211 1609.7615 722 4287636300
52.13945 1609.7615 722 4287430720
53.225689 1609.7615 722 4286906423
54.220184 1609.5963 721 4287430699
55.304588 1609.5963 721 4287299625
56.484406 1609.7615 722 4286971924
57.570641 1609.7615 722 4287168534
58.557796 1609.5963 721 4287037491
59.6422 1609.5963 721 4286775344
60.623852 1609.4312 720 4285661218
61.706421 1609.4312 720 4286906933
62.895412 1609.5963 721 4283908482
63.979816 1609.5963 721 4291014382
65.064217 1609.5963 721 4288927743
66.148621 1609.5963 721 4291427839
67.233025 1609.5963 721 4292214783
68.317429 1609.5963 721 4291557119
69.519264 1609.7615 722 4291359999
70.605507 1609.7615 722 4291688959
71.691742 1609.7615 722 4291753983
72.777985 1609.7615 722 4291622655
73.988991 1609.9266 723 4291492351
75.077065 1609.9266 723 4291887103
76.293579 1610.0918 724 4292018175
77.513763 1610.2568 725 4291755007
78.737617 1610.422 726 4290835967
79.965141 1610.5872 727 4291230463
81.196327 1610.7523 728 4291755007
82.43119 1610.9175 729 4291688959
83.948624 1611.4128 732 4290901247
84.911926 1611.2477 731 4291361791
86.300919 1611.578 733 4291362047
87.407341 1611.578 733 4291559167
89.100914 1612.2385 737 4291362815
90.363304 1612.4037 738 4291428351
31.185322 1611.1248 737 4283891712
32.299084 1611.1248 737 4284219392
33.247707 1610.6349 734 4284874757
34.355965 1610.6349 734 4285005830
35.288074 1610.1449 731 4284809227
36.330276 1609.9817 730 4284940301
37.431194 1609.9817 730 4285202466
38.467892 1609.8184 729 4286054446
39.566971 1609.8184 729 4286185530
40.666054 1609.8184 729 4286316604
41.625687 1609.4917 727 4286447633
42.64954 1609.3285 726 4286973978
43.669724 1609.1652 725 4286909997
44.761467 1609.1652 725 4285923358
45.85321 1609.1652 725 4286578747
46.944954 1609.1652 725 4286447673
47.955963 1609.0018 724 4286513206
49.045872 1609.0018 724 4288417619
50.13578 1609.0018 724 4288162605
51.13945 1608.8385 723 4288820279
52.227524 1608.8385 723 4287627328
53.315598 1608.8385 723 4286840883
54.311928 1608.6753 722 4287037484
55.398167 1608.6753 722 4286840873
56.484406 1608.6753 722 4286709761
57.570641 1608.6753 722 4286971910
58.656879 1608.6753 722 4286709814
59.743118 1608.6753 722 4286513203
60.829357 1608.6753 722 4285530159
61.915596 1608.6753 722 4290198646
62.895412 1608.512 721 4284507812
64.088074 1608.6753 722 4290034423
65.064217 1608.512 721 4289518847
66.148621 1608.512 721 4291755519
67.233025 1608.512 721 4292214527
68.433029 1608.6753 722 4291622655
69.519264 1608.6753 722 4291557375
70.605507 1608.6753 722 4291688959
71.691742 1608.6753 722 4291623167
72.900917 1608.8385 723 4291557375
74.113762 1609.0018 724 4291361023
75.203667 1609.0018 724 4291558655
76.550461 1609.3285 726 4291689727
77.644035 1609.3285 726 4291558399
78.869728 1609.4917 727 4290967039
80.233025 1609.8184 729 4291361791
81.332108 1609.8184 729 4291755007
82.56881 1609.9817 730 4291820799
84.088074 1610.4716 733 4291294719
85.194496 1610.4716 733 4291426303
86.444038 1610.6349 734 4291558655
87.842201 1610.9614 736 4292018175
89.247704 1611.2881 738 4291690495
90.511925 1611.4514 739 4291690495
31.288073 1610.334 739 4284612612
32.405506 1610.334 739 4284678149
33.467892 1610.1725 738 4284940325
34.355965 1609.5266 734 4284940325
35.34679 1609.2036 732 4285005864
36.330276 1608.8807 730 4286909509
37.431194 1608.8807 730 4286655870
38.532108 1608.8807 730 4286458747
39.633026 1608.8807 730 4287317595
40.666054 1608.7192 729 4287317595
41.695412 1608.5579 728 4286919305
42.7211 1608.3964 727 4287051148
43.743118 1608.2349 726 4287835533
44.836697 1608.2349 726 4284809311
45.85321 1608.0734 725 4286840879
46.944954 1608.0734 725 4286840879
48.036697 1608.0734 725 4286578713
49.045872 1607.9119 724 4288811834
50.13578 1607.9119 724 4288358976
51.13945 1607.7505 723 4288424769
52.315598 1607.9119 724 4287893061
53.315598 1607.7505 723 4286644273
54.403671 1607.7505 723 4287496279
55.491745 1607.7505 723 4287103057
56.579815 1607.7505 723 4286709763
57.667889 1607.7505 723 4286709763
58.755962 1607.7505 723 4286447651
59.844036 1607.7505 723 4286709800
60.829357 1607.589 722 4285928539
61.915596 1607.589 722 4289218189
63.001835 1607.589 722 4284904886
64.088074 1607.589 722 4289970943
65.064217 1607.4275 721 4289453823
66.148621 1607.4275 721 4291427327
67.346786 1607.589 722 4291821055
68.433029 1607.589 722 4291426559
69.636696 1607.7505 723 4291427071
70.605507 1607.589 722 4291492863
71.812843 1607.7505 723 4291558143
73.023849 1607.9119 724 4291426559
74.238533 1608.0734 725 4291688959
75.330276 1608.0734 725 4291755007
76.678902 1608.3964 727 4291820799
77.904587 1608.5579 728 4291755007
79.133942 1608.7192 729 4291098367
80.366974 1608.8807 730 4291229951
81.467888 1608.8807 730 4291492351
82.706421 1609.0422 731 4291689471
84.088074 1609.3651 733 4291361023
85.194496 1609.3651 733 4291558655
86.444038 1609.5266 734 4291755519
87.98716 1610.011 737 4291887103
89.247704 1610.1725 738 4291099903
90.511925 1610.334 739 4291428351
31.339449 1609.3761 740 4286271090
32.511925 1609.5358 741 4286468725
33.522934 1609.2166 739 4286661487
34.526604 1608.8972 737 4285016661
35.405506 1608.2587 733 4286790788
36.451378 1608.0991 732 4290540989
37.555962 1608.0991 732 4289691315
38.596329 1607.9395 731 4287980440
39.699081 1607.9395 731 4287454596
40.733944 1607.7798 730 4290086573
41.765137 1607.6202 729 4289826258
42.7211 1607.3009 727 4289299914
43.816513 1607.3009 727 4288764855
44.836697 1607.1412 726 4283435878
45.930275 1607.1412 726 4286382110
46.944954 1606.9817 725 4286447647
48.036697 1606.9817 725 4286382080
49.128441 1606.9817 725 4287628300
50.220184 1606.9817 725 4287695149
51.225689 1606.822 724 4287366185
52.315598 1606.822 724 4287430715
53.405506 1606.822 724 4288811344
54.403671 1606.6624 723 4288031367
55.491745 1606.6624 723 4287241595
56.579815 1606.6624 723 4286775330
57.667889 1606.6624 723 4286316571
58.755962 1606.6624 723 4286185524
59.844036 1606.6624 723 4289867116
60.93211 1606.6624 723 4286728086
62.020184 1606.6624 723 4288636083
63.108257 1606.6624 723 4284579526
64.196327 1606.6624 723 4289711359
65.174309 1606.5028 722 4290045695
66.260551 1606.5028 722 4291558911
67.57431 1606.822 724 4291821055
68.433029 1606.5028 722 4291426559
69.754128 1606.822 724 4291558911
70.84404 1606.822 724 4291952639
72.055046 1606.9817 725 4291427071
73.14679 1606.9817 725 4291229695
74.363304 1607.1412 726 4291229695
75.456879 1607.1412 726 4291492863
76.678902 1607.3009 727 4291689727
77.904587 1607.4606 728 4291887103
79.133942 1607.6202 729 4291164415
80.500916 1607.9395 731 4291230207
81.603668 1607.9395 731 4291427071
82.981651 1608.2587 733 4291690239
84.227524 1608.4183 734 4292017663
85.335777 1608.4183 734 4292345855
86.444038 1608.4183 734 4292018175
87.98716 1608.8972 737 4292018175
89.394493 1609.2166 739 4291624703
30.46789 1609.0459 745 4285623715
31.596331 1609.0459 745 4286344092
32.671558 1608.8881 744 4286409885
33.633026 1608.4147 741 4287063704
34.583485 1607.9413 738 4287063704
35.464222 1607.3101 734 4286601910
36.511925 1607.1523 733 4287983563
37.618347 1607.1523 733 4288182952
38.72477 1607.1523 733 4285419647
39.765137 1606.9945 732 4283184229
40.869724 1606.9945 732 4288316083
41.834862 1606.679 730 4288452062
42.86422 1606.5211 729 4287070409
43.889908 1606.3633 728 4287320991
44.911926 1606.2056 727 4282649688
46.007339 1606.2056 727 4286119936
47.023853 1606.0477 726 4286447618
48.117432 1606.0477 726 4286382098
49.128441 1605.8899 725 4286971931
50.220184 1605.8899 725 4287628337
51.311928 1605.8899 725 4287760180
52.403671 1605.8899 725 4287103033
53.405506 1605.7321 724 4288616016
54.495415 1605.7321 724 4288300166
55.58532 1605.7321 724 4287247477
56.675228 1605.7321 724 4286979147
57.765137 1605.7321 724 4286584389
58.855045 1605.7321 724 4286321737
59.944954 1605.7321 724 4289347959
61.137615 1605.8899 725 4286864274
62.124771 1605.7321 724 4287785376
63.21468 1605.7321 724 4284646607
64.304588 1605.7321 724 4290107135
65.394493 1605.7321 724 4290702591
66.484406 1605.7321 724 4291689471
67.57431 1605.7321 724 4291624447
68.664223 1605.7321 724 4291558655
69.754128 1605.7321 724 4291690495
70.84404 1605.7321 724 4291690495
72.055046 1605.8899 725 4290836735
73.269722 1606.0477 726 4290836735
74.488075 1606.2056 727 4291163903
75.583488 1606.2056 727 4291492607
76.807343 1606.3633 728 4291558655
78.034859 1606.5211 729 4291624447
79.398163 1606.8367 731 4291099391
80.634865 1606.9945 732 4291099391
82.011009 1607.3101 734 4291361023
83.532112 1607.7834 737 4291492863
84.645874 1607.7834 737 4291688959
85.618347 1607.6257 736 4291952127
86.730278 1607.6257 736 4291230719
87.98716 1607.7834 737 4291559423
89.100914 1607.7834 737 4291821567
30.517431 1608.0734 746 4287792301
31.647707 1608.0734 746 4287661233
32.72477 1607.9175 745 4287463854
33.743118 1607.6055 743 4287724713
34.867889 1607.6055 743 4288711608
35.464222 1606.2018 734 4287922125
36.511925 1606.0459 733 4284566425
37.680733 1606.2018 734 4284825472
38.72477 1606.0459 733 4284562300
39.831192 1606.0459 733 4283581320
40.869724 1605.8899 732 4287726022
41.904587 1605.7339 731 4288187861
42.93578 1605.578 730 4286016435
43.963303 1605.422 729 4287254903
44.987156 1605.2661 728 4282189098
46.007339 1605.1101 727 4285399040
47.102753 1605.1101 727 4286119936
48.117432 1604.9541 726 4286578735
49.21101 1604.9541 726 4286775347
50.304588 1604.9541 726 4287695668
51.398167 1604.9541 726 4289801043
52.403671 1604.7982 725 4287764816
53.495415 1604.7982 725 4287501900
54.587154 1604.7982 725 4287707765
55.678898 1604.7982 725 4288628867
56.675228 1604.6422 724 4288039549
57.765137 1604.6422 724 4287513204
58.855045 1604.6422 724 4287186038
60.045872 1604.7982 725 4288501642
61.137615 1604.7982 725 4286931600
62.229359 1604.7982 725 4288181667
63.321102 1604.7982 725 4284845274
64.304588 1604.6422 724 4290437631
65.504585 1604.7982 725 4291885055
66.596329 1604.7982 725 4292345599
67.688072 1604.7982 725 4292214783
68.779816 1604.7982 725 4292280319
69.871559 1604.7982 725 4291821567
71.082565 1604.9541 726 4291755519
72.176147 1604.9541 726 4291164415
73.515594 1605.2661 728 4291230207
74.612846 1605.2661 728 4291622655
75.710091 1605.2661 728 4291820031
77.064217 1605.578 730 4291688959
78.29541 1605.7339 731 4292017919
79.662384 1606.0459 733 4291689471
80.902756 1606.2018 734 4291887103
82.41835 1606.6697 737 4291689727
83.669724 1606.8257 738 4291558399
84.645874 1606.6697 737 4291755007
85.618347 1606.5138 736 4292083711
86.873398 1606.6697 737 4291558655
87.98716 1606.6697 737 4292018175
24.159634 1608.6385 757 4287975561
25.229359 1608.3303 755 4286016396
26.291742 1608.022 753 4284963452
27.346788 1607.7137 751 4284958825
28.440367 1607.5596 750 4285617012
29.530275 1607.4055 749 4285816983
30.616514 1607.2513 748 4287593393
31.647707 1606.9431 746 4286875065
32.777981 1606.9431 746 4286216878
33.798164 1606.6349 744 4285034669
34.811008 1606.3267 742 4287140301
35.933945 1606.3267 742 4288517072
36.693577 1605.4019 736 4286477488
37.805504 1605.4019 736 4286077853
38.78899 1605.0936 734 4286538404
39.897247 1605.0936 734 4286738098
40.937614 1604.9395 733 4288185544
41.974312 1604.7853 732 4288449511
43.007339 1604.6312 731 4287725788
43.963303 1604.323 729 4287983018
45.062386 1604.323 729 4282390613
46.084404 1604.1688 728 4285923374
47.102753 1604.0146 727 4286316596
48.198166 1604.0146 727 4286644263
49.21101 1603.8606 726 4286709800
50.304588 1603.8606 726 4287760191
51.398167 1603.8606 726 4288681293
52.491745 1603.8606 726 4287567691
53.58532 1603.8606 726 4288028242
54.587154 1603.7064 725 4287378298
55.678898 1603.7064 725 4288496779
56.770641 1603.7064 725 4287516544
57.862385 1603.7064 725 4287122042
58.954128 1603.7064 725 4286794876
60.045872 1603.7064 725 4288044687
61.137615 1603.7064 725 4286802063
62.229359 1603.7064 725 4287723165
63.321102 1603.7064 725 4285043157
64.412842 1603.7064 725 4290503935
65.504585 1603.7064 725 4291753727
66.596329 1603.7064 725 4292017151
67.801834 1603.8606 726 4291164159
68.895416 1603.8606 726 4291361791
69.988991 1603.8606 726 4291557375
71.201836 1604.0146 727 4291557375
72.297249 1604.0146 727 4291556863
73.638535 1604.323 729 4291753983
74.737617 1604.323 729 4291819519
75.963303 1604.4771 730 4291885311
77.192657 1604.6312 731 4291885311
78.555962 1604.9395 733 4291951103
79.794495 1605.0936 734 4291361023
81.170639 1605.4019 736 4291821567
82.41835 1605.5559 737 4291755519
83.669724 1605.7101 738 4291689727
84.645874 1605.5559 737 4291755007
85.618347 1605.4019 736 4291820799
86.730278 1605.4019 736 4291099391
24.159634 1607.488 757 4283242831
25.188992 1607.0312 754 4283310911
26.291742 1606.8789 753 4283179325
27.390825 1606.7266 752 4283375421
28.53211 1606.7266 752 4285678176
29.577982 1606.422 750 4286077072
30.666056 1606.2698 749 4288182449
31.750458 1606.1174 748 4287593128
32.777981 1605.8129 746 4284764029
33.798164 1605.5083 744 4286474676
34.867889 1605.356 743 4289040347
35.875229 1605.0514 741 4288909240
36.875229 1604.7468 739 4288909240
37.867889 1604.4421 737 4289105360
38.917431 1604.2899 736 4289434582
39.897247 1603.9854 734 4288975335
40.937614 1603.833 733 4289041384
42.044037 1603.833 733 4289370111
43.078899 1603.6808 732 4288777974
44.110092 1603.5284 731 4288903622
45.212845 1603.5284 731 4286995369
46.161469 1603.2239 729 4286254970
47.260551 1603.2239 729 4284940390
48.359634 1603.2239 729 4286316587
49.293579 1602.9193 727 4286447661
50.388992 1602.9193 727 4286906431
51.484406 1602.9193 727 4287825997
52.579815 1602.9193 727 4286846535
53.58532 1602.767 726 4289280619
54.770641 1602.9193 727 4288437637
55.866055 1602.9193 727 4288568966
56.866055 1602.767 726 4287385730
57.959633 1602.767 726 4287188094
58.954128 1602.6146 725 4287254405
60.045872 1602.6146 725 4288241300
61.240368 1602.767 726 4286603655
62.229359 1602.6146 725 4288116894
63.321102 1602.6146 725 4285372113
64.412842 1602.6146 725 4290701055
65.614677 1602.767 726 4292345087
66.70826 1602.767 726 4292147711
67.915596 1602.9193 727 4291558143
69.126602 1603.0715 728 4291689471
70.223854 1603.0715 728 4291689727
71.440369 1603.2239 729 4291558399
72.660553 1603.3761 730 4291820799
73.884407 1603.5284 731 4292017919
74.98716 1603.5284 731 4292082687
76.216515 1603.6808 732 4292082687
77.449539 1603.833 733 4292148479
78.686241 1603.9854 734 4292148479
80.058716 1604.2899 736 4291427071
81.304588 1604.4421 737 4291821567
82.554131 1604.5945 738 4291820799
83.669724 1604.5945 738 4291755007
84.645874 1604.4421 737 4291821055
85.618347 1604.2899 736 4291952383
86.730278 1604.2899 736 4291755519
24.082569 1606.0367 755 4282128198
25.148624 1605.7358 753 4282913335
26.249542 1605.5853 752 4282386990
27.390825 1605.5853 752 4282843157
28.486238 1605.4348 751 4285211449
29.577982 1605.2844 750 4284957810
30.666056 1605.1339 749 4287260565
31.750458 1604.9835 748 4286933914
32.777981 1604.6826 746 4285289090
33.85321 1604.5321 745 4287126167
34.867889 1604.2312 743 4287915427
35.933945 1604.0807 742 4286932619
36.99633 1603.9303 741 4288380066
37.992661 1603.6294 739 4287464635
38.917431 1603.178 736 4287793600
40.095413 1603.3285 737 4288581835
41.005505 1602.8771 734 4288647628
42.044037 1602.7266 733 4289829601
43.150459 1602.7266 733 4288447948
44.183487 1602.5762 732 4287524266
45.288074 1602.5762 732 4286142613
46.238533 1602.2753 730 4286789493
47.339451 1602.2753 730 4284026187
48.440369 1602.2753 730 4286251054
49.458717 1602.1248 729 4286447664
50.557796 1602.1248 729 4286513214
51.570641 1601.9744 728 4287631183
52.667889 1601.9744 728 4286391876
53.675228 1601.8239 727 4289287024
54.862385 1601.9744 728 4288045983
55.959633 1601.9744 728 4287519639
56.961468 1601.8239 727 4287386232
58.056881 1601.8239 727 4287254389
59.053211 1601.6733 726 4287254143
60.247707 1601.8239 727 4288174989
61.343121 1601.8239 727 4286209160
62.333946 1601.6733 726 4288117157
63.427525 1601.6733 726 4286291425
64.521103 1601.6733 726 4291555071
65.614677 1601.6733 726 4292280063
66.820183 1601.8239 727 4291951103
67.915596 1601.8239 727 4291492863
69.242203 1602.1248 729 4291624447
70.341286 1602.1248 729 4291362559
71.559631 1602.2753 730 4291362559
72.781654 1602.4257 731 4291559167
74.007339 1602.5762 732 4291559167
75.236694 1602.7266 733 4291755519
76.343117 1602.7266 733 4291952639
77.57798 1602.8771 734 4292149247
79.077065 1603.3285 737 4292083711
80.190826 1603.3285 737 4291427071
81.43853 1603.4789 738 4291558655
82.554131 1603.4789 738 4291623167
83.807343 1603.6294 739 4291820799
84.785324 1603.4789 738 4291952383
85.900917 1603.4789 738 4292018175
87.01651 1603.4789 738 4291821567
24.044037 1604.7413 754 4282523206
25.148624 1604.5927 753 4282981190
26.249542 1604.4441 752 4282586432
27.390825 1604.4441 752 4282649645
28.486238 1604.2954 751 4282386729
29.625689 1604.2954 751 4282321970
30.715597 1604.1467 750 4282584885
31.750458 1603.8495 748 4282912835
32.777981 1603.5522 746 4282847041
33.85321 1603.4037 745 4283305029
34.92477 1603.255 744 4283633993
35.992661 1603.1064 743 4283437382
36.99633 1602.8092 741 4283897933
38.055046 1602.6605 740 4283704667
39.110092 1602.512 739 4283770460
40.161469 1602.3633 738 4284429158
41.141285 1602.066 736 4285284211
42.113762 1601.7688 734 4284888424
43.222019 1601.7688 734 4283835735
44.256882 1601.6202 733 4284946771
45.288074 1601.4716 732 4285012564
46.315598 1601.323 731 4286192977
47.41835 1601.323 731 4286192977
48.440369 1601.1743 730 4286584905
49.541283 1601.1743 730 4286584905
50.6422 1601.1743 730 4286651731
51.656879 1601.0256 729 4288099177
52.844036 1601.1743 730 4286989907
53.855045 1601.0256 729 4288569195
55.045872 1601.1743 730 4288242593
56.053211 1601.0256 729 4287321491
57.152294 1601.0256 729 4287254382
58.154129 1600.8771 728 4287385711
59.251377 1600.8771 728 4287385980
60.449543 1601.0256 729 4288241289
61.445873 1600.8771 728 4286406551
62.543118 1600.8771 728 4288577719
63.640366 1600.8771 728 4286294006
64.629356 1600.7284 727 4291425791
65.72477 1600.7284 727 4292804607
66.932114 1600.8771 728 4292082175
68.029358 1600.8771 728 4291688959
69.242203 1601.0256 729 4291820799
70.341286 1601.0256 729 4291689727
71.559631 1601.1743 730 4291689727
72.902756 1601.4716 732 4291755007
74.130272 1601.6202 733 4291689215
75.361465 1601.7688 734 4291755007
76.722939 1602.066 736 4292017919
77.834862 1602.066 736 4292149247
79.207336 1602.3633 738 4292411391
80.455048 1602.512 739 4291689727
81.572479 1602.512 739 4291755519
82.825691 1602.6605 740 4291821567
83.944954 1602.6605 740 4291821567
85.064217 1602.6605 740 4291952383
86.183487 1602.6605 740 4292018175
26.249542 1603.3027 752 4282982473
27.390825 1603.3027 752 4283047487
28.53211 1603.3027 752 4282652729
29.625689 1603.156 751 4282717239
30.715597 1603.0092 750 4282454067
31.750458 1602.7156 748 4282712891
32.884403 1602.7156 748 4282778685
33.908257 1602.422 746 4283105841
34.92477 1602.1284 744 4283302964
35.992661 1601.9817 743 4283826232
37.056881 1601.8348 742 4283564084
38.117432 1601.6881 741 4284219456
39.174313 1601.5413 740 4284416068
40.227524 1601.3945 739 4285728585
41.277065 1601.2477 738 4285925707
42.322937 1601.101 737 4286192977
43.365139 1600.9541 736 4285271875
44.330276 1600.6605 734 4285795654
45.438534 1600.6605 734 4286321998
46.392662 1600.3669 732 4286127438
47.576145 1600.5138 733 4286390610
48.601833 1600.3669 732 4286194764
49.623852 1600.2202 731 4285997129
50.726604 1600.2202 731 4285931856
51.743118 1600.0734 730 4287510887
52.93211 1600.2202 731 4286991453
53.944954 1600.0734 730 4288110191
55.137615 1600.2202 731 4287979677
56.14679 1600.0734 730 4287453333
57.247707 1600.0734 730 4287054950
58.348625 1600.0734 730 4287778673
59.449543 1600.0734 730 4287714431
60.550457 1600.0734 730 4288372105
61.548622 1599.9266 729 4286079900
62.647705 1599.9266 729 4288185533
63.746788 1599.9266 729 4286950911
64.737617 1599.7798 728 4291688191
65.834862 1599.7798 728 4292607999
67.044037 1599.9266 729 4291885567
68.14312 1599.9266 729 4291557375
69.242203 1599.9266 729 4291688959
70.576149 1600.2202 731 4291753983
71.798164 1600.3669 732 4291820031
73.023849 1600.5138 733 4291557375
74.253212 1600.6605 734 4291755007
75.611008 1600.9541 736 4291885823
76.849541 1601.101 737 4292083455
77.963303 1601.101 737 4292083711
79.207336 1601.2477 738 4292018175
80.455048 1601.3945 739 4291427071
81.706421 1601.5413 740 4291821567
82.961472 1601.6881 741 4292083711
84.220184 1601.8348 742 4292083711
85.343117 1601.8348 742 4292018175
86.889908 1602.2753 745 4292083711
27.390825 1602.1615 752 4283112776
28.53211 1602.1615 752 4283046983
29.625689 1602.0165 751 4283112524
30.765137 1602.0165 751 4283178573
31.801834 1601.7266 749 4283439944
32.884403 1601.5817 748 4283242566
33.908257 1601.2917 746 4283504440
34.981651 1601.1467 745 4283438647
35.992661 1600.8569 743 4283699786
37.056881 1600.7119 742 4283305029
38.242203 1600.8569 743 4283958581
39.302753 1600.7119 742 4284221754
40.227524 1600.2771 739 4284613691
41.277065 1600.1321 738 4285140291
42.392662 1600.1321 738 4285075770
43.436699 1599.9872 737 4285470272
44.477066 1599.8422 736 4285470283
45.438534 1599.5522 734 4285930834
46.469727 1599.4073 733 4286062411
47.655045 1599.5522 734 4286259789
48.682568 1599.4073 733 4286259022
49.706421 1599.2623 732 4286390864
50.811008 1599.2623 732 4286326614
51.829357 1599.1174 731 4287313509
53.020184 1599.2623 732 4286333276
54.124771 1599.2623 732 4288175480
55.229359 1599.2623 732 4288176538
56.240368 1599.1174 731 4287650194
57.343121 1599.1174 731 4287186563
58.348625 1598.9725 730 4287712907
59.548622 1599.1174 731 4287452288
60.651375 1599.1174 731 4287912839
61.651375 1598.9725 730 4285489819
62.752293 1598.9725 730 4288845005
63.85321 1598.9725 730 4287216383
64.954132 1598.9725 730 4291493119
66.055046 1598.9725 730 4292739071
67.267891 1599.1174 731 4291951615
68.370644 1599.1174 731 4291885823
69.473396 1599.1174 731 4291885823
70.811012 1599.4073 733 4291951615
71.917435 1599.4073 733 4292214783
73.387154 1599.8422 736 4292082687
74.499084 1599.8422 736 4292411391
75.735779 1599.9872 737 4292214527
76.976151 1600.1321 738 4292148479
78.091743 1600.1321 738 4292018175
79.337616 1600.2771 739 4292018175
80.719269 1600.567 741 4291427071
81.84037 1600.567 741 4291887103
83.233025 1600.8569 743 4292018175
84.495415 1601.0018 744 4292018175
85.761467 1601.1467 745 4292018175
86.889908 1601.1467 745 4292083711
27.434862 1601.1633 753 4283309641
28.577982 1601.1633 753 4283309641
29.673395 1601.0201 752 4283309641
30.765137 1600.8771 751 4283375434
31.85321 1600.7339 750 4283572547
32.937614 1600.5908 749 4283440962
33.908257 1600.1615 746 4283834437
35.038532 1600.1615 746 4283768643
36.110092 1600.0183 745 4283439944
37.177982 1599.8752 744 4283110979
38.242203 1599.7321 743 4283635508
39.366974 1599.7321 743 4283504179
40.42569 1599.589 742 4284552252
41.412846 1599.3027 740 4284947010
42.462387 1599.1597 739 4284880703
43.508255 1599.0165 738 4284814910
44.550457 1598.8734 737 4285341004
45.588989 1598.7302 736 4285538127
46.546787 1598.4441 734 4285932110
47.655045 1598.4441 734 4286195026
48.682568 1598.3009 733 4286325580
49.78899 1598.3009 733 4286259787
50.895412 1598.3009 733 4286392407
52.001835 1598.3009 733 4287247716
53.108257 1598.3009 733 4286135386
54.21468 1598.3009 733 4288306298
55.321102 1598.3009 733 4288242595
56.333946 1598.1578 732 4287321493
57.438534 1598.1578 732 4286990440
58.445873 1598.0146 731 4287450991
59.647705 1598.1578 732 4287254655
60.752293 1598.1578 732 4287978634
61.651375 1597.8716 730 4285097380
62.961468 1598.1578 732 4289045216
64.066055 1598.1578 732 4288136191
65.170639 1598.1578 732 4291820543
66.27523 1598.1578 732 4292673535
67.379814 1598.1578 732 4292280319
68.598167 1598.3009 733 4292018175
69.70459 1598.3009 733 4291952383
70.928444 1598.4441 734 4291755007
72.036697 1598.4441 734 4291952127
73.508255 1598.8734 737 4291753983
74.622017 1598.8734 737 4292280319
75.86055 1599.0165 738 4292083455
77.102753 1599.1597 739 4292083455
78.348625 1599.3027 740 4292214783
79.598167 1599.4459 741 4292083455
80.851379 1599.589 742 4290968063
82.108253 1599.7321 743 4291493887
83.504585 1600.0183 745 4291756031
84.770645 1600.1615 746 4291559423
86.179817 1600.4478 748 4291558911
87.313759 1600.4478 748 4291821567
27.434862 1600.0201 753 4283375180
28.577982 1600.0201 753 4283375180
29.673395 1599.8789 752 4283375180
30.765137 1599.7377 751 4283572816
31.85321 1599.5963 750 4283572043
32.937614 1599.4551 749 4283440714
34.018349 1599.3137 748 4284031300
35.038532 1599.0312 746 4284294728
36.110092 1598.8899 745 4283835204
37.238533 1598.8899 745 4283243068
38.304588 1598.7487 744 4283831856
39.366974 1598.6073 743 4283831856
40.491745 1598.6073 743 4284616773
41.548622 1598.4661 742 4284880201
42.532108 1598.1835 740 4284488517
43.579815 1598.0422 739 4284488517
44.623852 1597.9009 738 4284814417
45.664219 1597.7596 737 4285274968
46.777981 1597.7596 737 4285798732
47.891743 1597.7596 737 4286325332
48.763302 1597.3358 734 4286519884
49.871559 1597.3358 734 4286585677
50.979816 1597.3358 734 4286523475
52.088074 1597.3358 734 4287378784
53.196331 1597.3358 734 4286396766
54.304588 1597.3358 734 4288962949
55.412846 1597.3358 734 4288571296
56.427525 1597.1945 733 4286860678
57.629356 1597.3358 734 4286857305
58.640366 1597.1945 733 4287581028
59.746788 1597.1945 733 4286991998
60.85321 1597.1945 733 4288110480
61.959633 1597.1945 733 4285033904
63.066055 1597.1945 733 4289507827
64.172478 1597.1945 733 4289057535
65.2789 1597.1945 733 4292149247
66.385323 1597.1945 733 4292935679
67.603668 1597.3358 734 4292804607
68.711929 1597.3358 734 4292214527
70.051376 1597.6184 736 4292148479
71.280731 1597.7596 737 4292018175
72.513763 1597.9009 738 4292018175
73.629356 1597.9009 738 4292083711
74.867889 1598.0422 739 4292214783
75.985321 1598.0422 739 4292018175
77.229355 1598.1835 740 4292149247
78.477066 1598.3247 741 4292280319
79.728439 1598.4661 742 4292148735
80.98349 1598.6073 743 4291952383
82.242203 1598.7487 744 4292018175
83.640366 1599.0312 746 4291821567
84.770645 1599.0312 746 4291689727
86.179817 1599.3137 748 4291755519
87.313759 1599.3137 748 4292214783
30.814678 1598.7377 752 4283508304
31.904587 1598.5981 751 4283834950
33.044037 1598.5981 751 4283834950
34.018349 1598.1798 748 4284161854
35.152294 1598.1798 748 4284293441
36.168808 1597.9009 746 4284293691
37.238533 1597.7615 745 4284227898
38.304588 1597.6221 744 4284356406
39.431194 1597.6221 744 4284487992
40.491745 1597.4825 743 4284554053
41.616512 1597.4825 743 4284488003
42.671558 1597.3431 742 4284293193
43.722935 1597.2036 741 4283832642
44.697247 1596.9248 739 4284355652
45.739449 1596.7853 738 4285079374
46.855045 1596.7853 738 4286125898
47.970642 1596.7853 738 4286323534
49.005505 1596.6459 737 4286388041
50.036697 1596.5065 736 4286585677
51.148624 1596.5065 736 4286457430
52.34679 1596.6459 737 4287312739
53.460552 1596.6459 737 4286003804
54.57431 1596.6459 737 4288635781
55.596329 1596.5065 736 4288375468
56.521099 1596.2275 734 4286533264
57.629356 1596.2275 734 4287186790
58.737614 1596.2275 734 4287581548
60.044037 1596.5065 736 4286795135
61.155964 1596.5065 736 4288110995
62.062386 1596.2275 734 4285035189
63.170643 1596.2275 734 4289706492
64.2789 1596.2275 734 4289780991
65.387154 1596.2275 734 4292083711
66.715599 1596.5065 736 4292410879
67.827522 1596.5065 736 4292410879
68.939453 1596.5065 736 4292214527
70.28257 1596.7853 738 4292214527
71.398163 1596.7853 738 4291887103
72.633026 1596.9248 739 4292018175
73.871559 1597.0642 740 4291952639
74.990829 1597.0642 740 4291952639
76.110092 1597.0642 740 4291427839
77.355965 1597.2036 741 4291624959
78.605507 1597.3431 742 4292082687
79.858719 1597.4825 743 4292280063
81.247704 1597.7615 745 4292345855
82.510094 1597.9009 746 4292148735
83.911926 1598.1798 748 4292082687
85.045868 1598.1798 748 4292148479
86.319267 1598.3192 749 4292148479
87.455048 1598.3192 749 4292411391
30.814678 1597.5963 752 4283442774
31.904587 1597.4587 751 4283307590
33.044037 1597.4587 751 4282978626
34.183487 1597.4587 751 4283567407
35.322937 1597.4587 751 4283961909
36.168808 1596.7706 746 4284092457
37.238533 1596.6331 745 4284092457
38.304588 1596.4954 744 4284288555
39.431194 1596.4954 744 4284288555
40.557796 1596.4954 744 4284550205
41.616512 1596.3578 743 4284550205
42.671558 1596.2202 742 4284682053
43.794495 1596.2202 742 4285339982
44.917431 1596.2202 742 4285539151
45.889908 1595.9449 740 4285802066
46.93211 1595.8074 739 4286193742
48.049541 1595.8074 739 4286062413
49.086239 1595.6697 738 4286519891
50.201836 1595.6697 738 4286783320
51.317432 1595.6697 738 4286588766
52.433029 1595.6697 738 4287444075
53.460552 1595.5321 737 4286333280
54.664219 1595.6697 738 4288833157
55.779816 1595.6697 738 4288638121
56.801834 1595.5321 737 4286401415
58.011009 1595.6697 738 4286987640
59.029358 1595.5321 737 4287777156
60.14312 1595.5321 737 4286533512
61.256882 1595.5321 737 4287849372
62.370644 1595.5321 737 4284643256
63.484406 1595.5321 737 4289643775
64.491745 1595.3945 736 4290044159
65.711929 1595.5321 737 4292280319
66.825691 1595.5321 737 4292739071
68.051376 1595.6697 738 4292344831
69.166969 1595.6697 738 4292214527
70.398163 1595.8074 739 4292607999
71.633026 1595.9449 740 4292411391
72.871559 1596.0825 741 4292345855
73.992661 1596.0825 741 4292214783
75.113762 1596.0825 741 4292280319
76.234863 1596.0825 741 4292018175
77.482567 1596.2202 742 4292149247
78.733948 1596.3578 743 4292280319
79.988991 1596.4954 744 4292345855
81.247704 1596.6331 745 4292280319
82.510094 1596.7706 746 4291951615
83.911926 1597.0459 748 4291755007
85.183487 1597.1835 749 4292149247
86.319267 1597.1835 749 4292017663
30.814678 1596.4551 752 4283971167
31.955963 1596.4551 752 4284560233
33.097248 1596.4551 752 4284297318
34.238533 1596.4551 752 4284688732
35.379818 1596.4551 752 4284491097
36.462387 1596.3192 751 4284947289
37.299084 1595.6404 746 4284815703
38.366974 1595.5046 745 4285077076
39.431194 1595.3688 744 4285208662
40.557796 1595.3688 744 4285471066
41.616512 1595.233 743 4285800031
42.741283 1595.233 743 4285931116
43.794495 1595.0973 742 4285668200
44.917431 1595.0973 742 4286128719
45.965137 1594.9614 741 4286128719
47.009174 1594.8257 740 4286391378
48.049541 1594.6899 739 4286654293
49.166973 1594.6899 739 4286523477
50.284405 1594.6899 739 4286194512
51.401836 1594.6899 739 4286523477
52.433029 1594.5541 738 4287641959
53.548622 1594.5541 738 4286597744
54.664219 1594.5541 738 4288439948
55.779816 1594.5541 738 4288901544
56.895412 1594.5541 738 4286269825
58.011009 1594.5541 738 4286986604
59.126606 1594.5541 738 4287973755
60.242203 1594.5541 738 4286533764
61.3578 1594.5541 738 4287783831
62.473396 1594.5541 738 4284906431
63.588989 1594.5541 738 4290367231
64.70459 1594.5541 738 4290767103
65.820183 1594.5541 738 4292476927
66.935783 1594.5541 738 4292607999
68.1633 1594.6899 739 4292214015
69.280731 1594.6899 739 4292083455
70.513763 1594.8257 740 4292411391
71.750458 1594.9614 741 4291821567
72.871559 1594.9614 741 4291821567
73.992661 1594.9614 741 4292017663
75.113762 1594.9614 741 4292214783
76.359634 1595.0973 742 4292017663
77.609177 1595.233 743 4292083455
78.862389 1595.3688 744 4292017663
80.249542 1595.6404 746 4292345855
81.644035 1595.9119 748 4292018175
82.777985 1595.9119 748 4291755263
84.047707 1596.0477 749 4291689727
85.183487 1596.0477 749 4291887103
86.319267 1596.0477 749 4291362047
32.007339 1595.4478 753 4285816731
33.150459 1595.4478 753 4286474660
34.293579 1595.4478 753 4286671006
35.436699 1595.4478 753 4286473884
36.521099 1595.3137 752 4286800798
37.601833 1595.1798 751 4286603162
38.678898 1595.0459 750 4286931864
39.495415 1594.3761 745 4287326621
40.623852 1594.3761 745 4287458460
41.684402 1594.2422 744 4287787424
42.741283 1594.1083 743 4288112017
43.866055 1594.1083 743 4284756574
44.917431 1593.9744 742 4285994830
45.965137 1593.8403 741 4286521431
47.086239 1593.8403 741 4286324819
48.128441 1593.7064 740 4286521942
49.166973 1593.5725 739 4286457171
50.284405 1593.5725 739 4286457171
51.401836 1593.5725 739 4286525272
52.519264 1593.5725 739 4288170353
53.636696 1593.5725 739 4287321472
54.754128 1593.5725 739 4288373903
55.871559 1593.5725 739 4288503954
56.988991 1593.5725 739 4286595957
58.106422 1593.5725 739 4286723952
59.223854 1593.5725 739 4287907969
60.341286 1593.5725 739 4286665864
61.458717 1593.5725 739 4288179359
62.576145 1593.5725 739 4284055749
63.693577 1593.5725 739 4290042879
64.811012 1593.5725 739 4291490559
65.928444 1593.5725 739 4292542463
67.045868 1593.5725 739 4292607999
68.27523 1593.7064 740 4292214015
69.508255 1593.8403 741 4292018175
70.629356 1593.8403 741 4292476927
71.867889 1593.9744 742 4292280319
72.990829 1593.9744 742 4292214783
74.113762 1593.9744 742 4292083455
75.236694 1593.9744 742 4292017663
76.484406 1594.1083 743 4292148479
77.862389 1594.3761 745 4292214527
79.119263 1594.5101 746 4292017663
80.510094 1594.778 748 4292476927
81.776146 1594.9119 749 4292280319
82.911926 1594.9119 749 4292082687
84.319267 1595.1798 751 4291755007
85.321098 1595.0459 750 4292411391
33.203671 1594.4366 754 4284705695
34.348625 1594.4366 754 4284705697
35.436699 1594.3046 753 4284639648
36.521099 1594.1725 752 4284966814
37.601833 1594.0404 751 4284901021
38.741283 1594.0404 751 4285558685
39.816513 1593.9082 750 4285887907
40.822018 1593.644 748 4286217130
41.955963 1593.644 748 4285888166
42.950459 1593.3798 746 4287064485
43.937614 1593.1156 744 4283971958
44.990826 1592.9835 743 4285799755
46.040367 1592.8513 742 4286194512
47.086239 1592.7192 741 4286127438
48.128441 1592.5872 740 4286324817
49.247707 1592.5872 740 4286457171
50.449543 1592.7192 741 4287444066
51.570641 1592.7192 741 4286989407
52.605503 1592.5872 740 4287647593
53.72477 1592.5872 740 4287386241
54.844036 1592.5872 740 4288439185
55.871559 1592.4551 739 4288437396
57.082569 1592.5872 740 4286529399
58.201836 1592.5872 740 4286986608
59.223854 1592.4551 739 4288039297
60.341286 1592.4551 739 4286929554
61.559631 1592.5872 740 4288508329
62.678898 1592.5872 740 4283794642
63.798164 1592.5872 740 4290110463
64.917435 1592.5872 740 4291491071
66.036697 1592.5872 740 4292280319
67.15596 1592.5872 740 4292411391
68.387154 1592.7192 741 4292148479
69.508255 1592.7192 741 4291558399
70.744957 1592.8513 742 4292018175
71.867889 1592.8513 742 4292411391
73.110092 1592.9835 743 4292411391
74.234863 1592.9835 743 4292345855
75.359634 1592.9835 743 4292280319
76.609177 1593.1156 744 4292214527
77.862389 1593.2477 745 4292148479
79.376144 1593.644 748 4291689727
80.640366 1593.7761 749 4292018175
82.040367 1594.0404 751 4292280319
83.179817 1594.0404 751 4292214527
84.319267 1594.0404 751 4291753983
33.203671 1593.2917 754 4285884572
34.348625 1593.2917 754 4285425570
35.49358 1593.2917 754 4284965019
36.579815 1593.1615 753 4285161369
37.662384 1593.0312 752 4285095320
38.741283 1592.9009 751 4285687441
39.816513 1592.7706 750 4286345627
40.954128 1592.7706 750 4286542250
42.023853 1592.6404 749 4285884320
43.089909 1592.5101 748 4287193227
