# .PCD v0.7 - Point Cloud Data file format
VERSION 0.7
FIELDS x y z rgb
SIZE 4 4 4 4
TYPE F F F U
COUNT 1 1 1 1
WIDTH 1374
HEIGHT 1
VIEWPOINT 0 0 0 1 0 0 0
POINTS 1374
DATA ascii
81.739449 1614.7266 732 4291166207
83.119263 1615.0679 734 4291428351
27.568808 1613.4532 731 4284153892
28.67156 1613.4532 731 4284481566
29.67523 1613.1156 729 4284350493
30.774311 1613.1156 729 4284153875
31.820183 1612.9468 728 4284219412
32.862385 1612.778 727 4284612635
33.900917 1612.6091 726 4284612635
34.93578 1612.4404 725 4284874781
36.027523 1612.4404 725 4284940318
37.119267 1612.4404 725 4285333524
38.21101 1612.4404 725 4285726746
39.236698 1612.2716 724 4285530187
40.326607 1612.2716 724 4285333575
41.34679 1612.1028 723 4285792265
42.434864 1612.1028 723 4286119949
43.522934 1612.1028 723 4286054464
44.611008 1612.1028 723 4286775370
45.622017 1611.934 722 4286713702
46.708256 1611.934 722 4288095355
47.794495 1611.934 722 4286531464
48.798164 1611.7651 721 4289031597
49.882568 1611.7651 721 4289238777
50.966972 1611.7651 721 4290028031
52.051376 1611.7651 721 4290159871
53.045872 1611.5963 720 4282659473
54.128441 1611.5963 720 4285726788
55.21101 1611.5963 720 4286251084
56.388992 1611.7651 721 4285006391
57.473396 1611.7651 721 4287440732
58.557796 1611.7651 721 4283261883
59.6422 1611.7651 721 4290301695
60.726604 1611.7651 721 4291033343
61.811008 1611.7651 721 4292018175
62.895412 1611.7651 721 4291428351
63.979816 1611.7651 721 4291559423
65.174309 1611.934 722 4291559423
66.260551 1611.934 722 4291428351
67.460548 1612.1028 723 4290510847
68.548622 1612.1028 723 4290904063
69.754128 1612.2716 724 4291493887
70.963303 1612.4404 725 4291690495
72.055046 1612.4404 725 4291887103
73.14679 1612.4404 725 4291756031
74.363304 1612.6091 726 4291690495
75.456879 1612.6091 726 4291756031
76.678902 1612.778 727 4291690495
78.034859 1613.1156 729 4291690495
79.266052 1613.2844 730 4291756031
80.634865 1613.6221 732 4291756031
82.011009 1613.9596 734 4291297279
83.119263 1613.9596 734 4291428351
27.568808 1612.3505 731 4284350506
28.67156 1612.3505 731 4284743723
29.724771 1612.1835 730 4284678186
30.825687 1612.1835 730 4284678186
31.873394 1612.0165 729 4284809260
32.972477 1612.0165 729 4285071396
33.957798 1611.6826 727 4285005859
34.994495 1611.5156 726 4285268012
36.088074 1611.5156 726 4285005865
37.119267 1611.3486 725 4284874785
38.21101 1611.3486 725 4288227156
39.236698 1611.1816 724 4285729169
40.326607 1611.1816 724 4283891829
41.416515 1611.1816 724 4283957291
42.434864 1611.0146 723 4286255438
43.522934 1611.0146 723 4287186298
44.611008 1611.0146 723 4290344361
45.622017 1610.8477 722 4291471541
46.708256 1610.8477 722 4291931836
47.794495 1610.8477 722 4290225389
48.880733 1610.8477 722 4290685940
49.882568 1610.6808 721 4290160639
50.966972 1610.6808 721 4286739422
52.051376 1610.6808 721 4285083559
53.13578 1610.6808 721 4281729139
54.220184 1610.6808 721 4284481552
55.21101 1610.5138 720 4286121512
56.388992 1610.6808 721 4285210196
57.473396 1610.6808 721 4288960397
58.557796 1610.6808 721 4283203286
59.6422 1610.6808 721 4289321983
60.726604 1610.6808 721 4291231487
61.811008 1610.6808 721 4292149247
63.001835 1610.8477 722 4292214783
64.088074 1610.8477 722 4292018175
65.174309 1610.8477 722 4291559423
66.260551 1610.8477 722 4291428351
67.460548 1611.0146 723 4291493887
68.548622 1611.0146 723 4291493887
69.754128 1611.1816 724 4291493887
70.963303 1611.3486 725 4291690495
72.055046 1611.3486 725 4291887103
73.269722 1611.5156 726 4291756031
74.363304 1611.5156 726 4291624959
75.456879 1611.5156 726 4291624959
76.678902 1611.6826 727 4291624959
78.034859 1612.0165 729 4291493887
79.133942 1612.0165 729 4291428351
80.233025 1612.0165 729 4291821567
26.818348 1612.5688 739 4284416035
27.706423 1611.7432 734 4284547109
28.766972 1611.578 733 4284743719
29.774311 1611.2477 731 4284743719
30.825687 1611.0825 730 4284874781
31.926605 1611.0825 730 4285005855
32.972477 1610.9175 729 4285399074
33.957798 1610.5872 727 4285333537
34.994495 1610.422 726 4285071396
36.088074 1610.422 726 4286645819
37.181652 1610.422 726 4285996942
38.21101 1610.2568 725 4287444389
39.302753 1610.2568 725 4286201951
40.326607 1610.0918 724 4285083727
41.416515 1610.0918 724 4285601662
42.50642 1610.0918 724 4287049108
43.522934 1609.9266 723 4288570822
44.611008 1609.9266 723 4291663092
45.622017 1609.7615 722 4289837045
46.708256 1609.7615 722 4289771252
47.794495 1609.7615 722 4289047551
48.880733 1609.7615 722 4288455417
49.966972 1609.7615 722 4289567729
51.053211 1609.7615 722 4284698790
52.13945 1609.7615 722 4285005916
53.13578 1609.5963 721 4284743767
54.220184 1609.5963 721 4285792258
55.304588 1609.5963 721 4288156454
56.484406 1609.7615 722 4285543798
57.570641 1609.7615 722 4288044189
58.656879 1609.7615 722 4283271137
59.743118 1609.7615 722 4289521663
60.829357 1609.7615 722 4290772991
61.915596 1609.7615 722 4291428351
63.001835 1609.7615 722 4291297279
64.088074 1609.7615 722 4291493887
65.174309 1609.7615 722 4291559423
66.260551 1609.7615 722 4291624959
67.460548 1609.9266 723 4292018175
68.548622 1609.9266 723 4291624959
69.754128 1610.0918 724 4291035135
70.963303 1610.2568 725 4291362815
72.055046 1610.2568 725 4291624959
73.392662 1610.5872 727 4291428351
74.488075 1610.5872 727 4291493887
75.456879 1610.422 726 4291690495
76.807343 1610.7523 728 4291624959
78.165138 1611.0825 730 4291559423
79.266052 1611.0825 730 4291297279
81.572479 1612.5688 739 4291362815
26.862385 1611.6146 740 4284547103
27.889908 1611.2881 738 4284678178
28.957798 1611.1248 737 4284678180
29.873394 1610.4716 733 4284678180
30.877064 1610.1449 731 4284743680
31.926605 1609.9817 730 4285071360
33.027523 1609.9817 730 4285333531
34.07156 1609.8184 729 4285202457
34.994495 1609.3285 726 4284219430
36.088074 1609.3285 726 4289938812
37.181652 1609.3285 726 4288507850
38.21101 1609.1652 725 4286928561
39.302753 1609.1652 725 4285219162
40.394497 1609.1652 725 4289034899
41.48624 1609.1652 725 4290354651
42.50642 1609.0018 724 4292196855
43.596329 1609.0018 724 4291608319
44.686237 1609.0018 724 4291410943
45.699081 1608.8385 723 4290163711
46.787155 1608.8385 723 4290295551
47.875229 1608.8385 723 4289898239
48.963303 1608.8385 723 4284042675
49.966972 1608.6753 722 4283302732
51.053211 1608.6753 722 4282515519
52.13945 1608.6753 722 4284940350
53.225689 1608.6753 722 4285333572
54.311928 1608.6753 722 4285530154
55.398167 1608.6753 722 4289541478
56.484406 1608.6753 722 4285748889
57.570641 1608.6753 722 4288183230
58.656879 1608.6753 722 4284129526
59.743118 1608.6753 722 4289919487
60.829357 1608.6753 722 4292214783
61.915596 1608.6753 722 4292149247
63.001835 1608.6753 722 4291952639
64.196327 1608.8385 723 4291952639
65.174309 1608.6753 722 4291756031
66.260551 1608.6753 722 4291756031
67.460548 1608.8385 723 4291559423
68.548622 1608.8385 723 4291428351
69.754128 1609.0018 724 4291624959
70.963303 1609.1652 725 4291690495
72.176147 1609.3285 726 4291624959
73.515594 1609.655 728 4291559423
74.612846 1609.655 728 4291493887
75.710091 1609.655 728 4291887103
76.935783 1609.8184 729 4291690495
78.165138 1609.9817 730 4291624959
80.455048 1611.4514 739 4291428351
81.572479 1611.4514 739 4291428351
82.689911 1611.4514 739 4291493887
25.869724 1610.9799 743 4284350491
26.862385 1610.4954 740 4284743715
27.93578 1610.334 739 4284874789
28.957798 1610.011 737 4284809248
30.07156 1610.011 737 4284874785
30.979816 1609.3651 733 4284940312
31.979816 1609.0422 731 4285071386
33.027523 1608.8807 730 4285464609
34.07156 1608.7192 729 4285267999
35.053211 1608.3964 727 4283170843
36.088074 1608.2349 726 4288956020
37.181652 1608.2349 726 4288841941
38.27523 1608.2349 726 4287526081
39.302753 1608.0734 725 4281741164
40.394497 1608.0734 725 4287201727
41.48624 1608.0734 725 4288848364
42.57798 1608.0734 725 4290098431
43.596329 1607.9119 724 4289446646
44.686237 1607.9119 724 4288986095
45.776146 1607.9119 724 4286684125
46.787155 1607.7505 723 4287013090
47.875229 1607.7505 723 4289565396
48.963303 1607.7505 723 4283183732
50.051376 1607.7505 723 4284678172
51.13945 1607.7505 723 4285136931
52.227524 1607.7505 723 4286054442
53.225689 1607.589 722 4286971960
54.311928 1607.589 722 4285403227
55.398167 1607.589 722 4288429705
56.484406 1607.589 722 4285161126
57.570641 1607.589 722 4288516570
58.656879 1607.589 722 4285641215
59.844036 1607.7505 723 4290180863
60.829357 1607.589 722 4291952639
62.020184 1607.7505 723 4291952639
63.108257 1607.7505 723 4292018175
64.304588 1607.9119 724 4292083711
65.284401 1607.7505 723 4291756031
66.372475 1607.7505 723 4291690495
67.57431 1607.9119 724 4291493887
68.664223 1607.9119 724 4291493887
69.871559 1608.0734 725 4292018175
71.082565 1608.2349 726 4292083711
72.297249 1608.3964 727 4291887103
73.638535 1608.7192 729 4291821567
74.737617 1608.7192 729 4291035135
75.8367 1608.7192 729 4291297279
77.449539 1609.3651 733 4291493887
78.555962 1609.3651 733 4291493887
80.587158 1610.4954 740 4291493887
81.706421 1610.4954 740 4291493887
82.689911 1610.334 739 4291493887
83.807343 1610.334 739 4291493887
24.866055 1610.334 746 4284219422
25.954128 1610.1743 745 4284350495
26.950459 1609.6954 742 4284743723
27.981651 1609.3761 740 4284809260
29.005505 1609.0569 738 4284809252
30.07156 1608.8972 737 4284874789
31.031193 1608.4183 734 4284940322
32.086239 1608.2587 733 4285071396
33.082569 1607.9395 731 4285333541
34.128441 1607.7798 730 4285202467
35.229359 1607.7798 730 4284088346
36.148624 1607.3009 727 4289084262
37.181652 1607.1412 726 4289168562
38.27523 1607.1412 726 4288839853
39.368809 1607.1412 726 4287525288
40.462387 1607.1412 726 4288643513
41.555962 1607.1412 726 4287066836
42.57798 1606.9817 725 4285817026
43.669724 1606.9817 725 4285422227
44.761467 1606.9817 725 4285356434
45.85321 1606.9817 725 4286008967
46.866055 1606.822 724 4284100970
47.955963 1606.822 724 4284815662
49.045872 1606.822 724 4283039763
50.051376 1606.6624 723 4285202465
51.13945 1606.6624 723 4285530151
52.227524 1606.6624 723 4285923647
53.315598 1606.6624 723 4288555367
54.311928 1606.5028 722 4286463637
55.398167 1606.5028 722 4288173999
56.484406 1606.5028 722 4284902838
57.570641 1606.5028 722 4288784368
58.755962 1606.6624 723 4286299647
59.844036 1606.6624 723 4290247167
60.93211 1606.6624 723 4292804607
62.020184 1606.6624 723 4292214783
63.21468 1606.822 724 4291821567
64.304588 1606.822 724 4291821567
65.394493 1606.822 724 4291756031
66.484406 1606.822 724 4291887103
67.801834 1607.1412 726 4291887103
68.895416 1607.1412 726 4291624959
70.106422 1607.3009 727 4291821567
71.321098 1607.4606 728 4291952639
72.539452 1607.6202 729 4291887103
73.761467 1607.7798 730 4291821567
74.862389 1607.7798 730 4291297279
76.089905 1607.9395 731 4291493887
77.57798 1608.4183 734 4291624959
79.467888 1609.3761 740 4292018175
80.587158 1609.3761 740 4291493887
81.706421 1609.3761 740 4291362815
82.825691 1609.3761 740 4291428351
23.735781 1609.2036 746 4284219422
24.866055 1609.2036 746 4284547099
25.954128 1609.0459 745 4284547099
26.994495 1608.7302 743 4284743723
27.981651 1608.2568 740 4284809260
29.053211 1608.0991 739 4284809242
30.121101 1607.9413 738 4284809242
31.185322 1607.7834 737 4285202461
32.245872 1607.6257 736 4285464609
33.247707 1607.3101 734 4285595686
34.242203 1606.9945 732 4285530149
35.288074 1606.8367 731 4284874795
36.330276 1606.679 730 4289213549
37.244038 1606.2056 727 4286997146
38.339451 1606.2056 727 4287194268
39.434864 1606.2056 727 4287195540
40.530273 1606.2056 727 4286998161
41.555962 1606.0477 726 4286338200
42.64954 1606.0477 726 4282850914
43.743118 1606.0477 726 4286120013
44.761467 1605.8899 725 4287105116
45.85321 1605.8899 725 4289085043
46.944954 1605.8899 725 4285795393
48.036697 1605.8899 725 4286513200
49.128441 1605.8899 725 4286185514
50.13578 1605.7321 724 4285726766
51.225689 1605.7321 724 4286316599
52.315598 1605.7321 724 4286259806
53.405506 1605.7321 724 4287772788
54.403671 1605.5743 723 4286008454
55.491745 1605.5743 723 4287390107
56.579815 1605.5743 723 4284248767
57.667889 1605.5743 723 4288262140
58.755962 1605.5743 723 4287089151
59.944954 1605.7321 724 4290707455
61.034863 1605.7321 724 4292804607
62.229359 1605.8899 725 4292280319
63.321102 1605.8899 725 4291887103
64.412842 1605.8899 725 4291887103
65.504585 1605.8899 725 4291428351
66.70826 1606.0477 726 4291690495
67.915596 1606.2056 727 4291952639
69.126602 1606.3633 728 4291756031
70.223854 1606.3633 728 4291493887
71.440369 1606.5211 729 4291493887
72.660553 1606.679 730 4291493887
73.884407 1606.8367 731 4291493887
74.862389 1606.679 730 4291362815
76.216515 1606.9945 732 4291362815
77.963303 1607.7834 737 4291100671
79.598167 1608.4147 741 4291428351
80.455048 1608.0991 739 4291624959
81.572479 1608.0991 739 4291559423
82.689911 1608.0991 739 4291362815
24.866055 1608.0734 746 4284874756
25.911926 1607.7615 744 4285400844
26.994495 1607.6055 743 4285137195
28.027523 1607.2936 741 4284219421
29.053211 1606.9817 739 4284678156
30.170643 1606.9817 739 4284874768
31.236698 1606.8257 738 4285268002
32.299084 1606.6697 737 4285333539
33.3578 1606.5138 736 4285530149
34.299084 1606.0459 733 4285595686
35.34679 1605.8899 732 4285333545
36.390827 1605.7339 731 4285071398
37.431194 1605.578 730 4284284974
38.532108 1605.578 730 4284416048
39.500916 1605.2661 728 4284088369
40.598164 1605.2661 728 4283891759
41.625687 1605.1101 727 4283957287
42.7211 1605.1101 727 4283760676
43.743118 1604.9541 726 4284809278
44.836697 1604.9541 726 4286976351
45.930275 1604.9541 726 4286711364
47.023853 1604.9541 726 4285726773
48.036697 1604.7982 725 4286120012
49.128441 1604.7982 725 4286973017
50.220184 1604.7982 725 4286325328
51.311928 1604.7982 725 4287706981
52.315598 1604.6422 724 4286924157
53.405506 1604.6422 724 4287648136
54.495415 1604.6422 724 4286272125
55.58532 1604.6422 724 4287521936
56.675228 1604.6422 724 4283724483
57.765137 1604.6422 724 4288198655
58.855045 1604.6422 724 4287812607
60.045872 1604.7982 725 4291100671
61.240368 1604.9541 726 4292673535
62.333946 1604.9541 726 4292345855
63.427525 1604.9541 726 4292018175
64.629356 1605.1101 727 4292083711
65.72477 1605.1101 727 4291690495
66.932114 1605.2661 728 4291559423
68.14312 1605.422 729 4291493887
69.242203 1605.422 729 4291493887
70.341286 1605.422 729 4291362815
71.559631 1605.578 730 4291362815
72.902756 1605.8899 732 4291428351
74.007339 1605.8899 732 4291756031
75.111923 1605.8899 732 4291624959
76.849541 1606.6697 737 4291690495
78.091743 1606.8257 738 4291624959
79.467888 1607.1376 740 4291559423
80.455048 1606.9817 739 4291624959
81.572479 1606.9817 739 4291756031
25.027523 1607.5596 750 4284744781
25.954128 1606.7889 745 4284942161
26.994495 1606.4807 743 4285136975
28.073395 1606.3267 742 4284350531
29.100918 1606.0183 740 4284743703
30.170643 1605.8643 739 4285071388
31.236698 1605.7101 738 4284940328
32.352295 1605.7101 738 4285071402
33.412846 1605.5559 737 4285333541
34.355965 1605.0936 734 4285399078
35.405506 1604.9395 733 4285792306
36.451378 1604.7853 732 4285661231
37.555962 1604.7853 732 4285464618
38.596329 1604.6312 731 4285595692
39.566971 1604.323 729 4285792302
40.666054 1604.323 729 4285726764
41.695412 1604.1688 728 4285857816
42.79266 1604.1688 728 4286054426
43.816513 1604.0146 727 4285923373
44.911926 1604.0146 727 4286447669
45.930275 1603.8606 726 4286316607
47.023853 1603.8606 726 4286513218
48.117432 1603.8606 726 4286251091
49.128441 1603.7064 725 4286842460
50.220184 1603.7064 725 4286261854
51.311928 1603.7064 725 4287248749
52.403671 1603.7064 725 4286531699
53.495415 1603.7064 725 4287321472
54.495415 1603.5522 724 4286141320
55.678898 1603.7064 725 4286930580
56.675228 1603.5522 724 4283659210
57.765137 1603.5522 724 4288593407
58.954128 1603.7064 725 4288011007
60.045872 1603.7064 725 4291035135
61.240368 1603.8606 726 4292149247
62.333946 1603.8606 726 4291887103
63.533943 1604.0146 727 4291559423
64.629356 1604.0146 727 4291821567
65.834862 1604.1688 728 4291887103
67.044037 1604.323 729 4291756031
68.14312 1604.323 729 4291559423
69.357796 1604.4771 730 4291559423
70.458717 1604.4771 730 4291035135
71.798164 1604.7853 732 4291297279
73.144951 1605.0936 734 4291362815
74.253212 1605.0936 734 4291428351
75.611008 1605.4019 736 4291690495
76.976151 1605.7101 738 4291690495
78.220184 1605.8643 739 4291690495
79.598167 1606.1725 741 4291624959
80.587158 1606.0183 740 4291362815
81.706421 1606.0183 740 4291428351
22.825687 1606.7266 752 4283498531
23.92844 1606.5743 751 4284416049
25.027523 1606.422 750 4285736551
25.99633 1605.8129 746 4287118204
27.038532 1605.5083 744 4286064219
28.073395 1605.2036 742 4283170863
29.100918 1604.899 740 4284547103
30.170643 1604.7468 739 4284743715
31.288073 1604.7468 739 4284940328
32.352295 1604.5945 738 4285005865
33.467892 1604.5945 738 4285333545
34.469727 1604.2899 736 4285399082
35.464222 1603.9854 734 4285595698
36.572475 1603.9854 734 4285595698
37.618347 1603.833 733 4285726774
38.72477 1603.833 733 4285792311
39.699081 1603.5284 731 4285857845
40.733944 1603.3761 730 4285857845
41.765137 1603.2239 729 4285988877
42.86422 1603.2239 729 4286644247
43.889908 1603.0715 728 4286054468
44.987156 1603.0715 728 4286120005
46.084404 1603.0715 728 4285993549
47.102753 1602.9193 727 4288164975
48.198166 1602.9193 727 4287316603
49.21101 1602.767 726 4286987638
50.304588 1602.767 726 4286067833
51.398167 1602.767 726 4286396797
52.403671 1602.6146 725 4285152361
53.495415 1602.6146 725 4287981460
54.587154 1602.6146 725 4286145193
55.678898 1602.6146 725 4284895127
56.770641 1602.6146 725 4283002572
57.862385 1602.6146 725 4288792319
58.954128 1602.6146 725 4287945471
60.14679 1602.767 726 4291100671
61.343121 1602.9193 727 4292280319
62.438534 1602.9193 727 4292018175
63.640366 1603.0715 728 4291821567
64.737617 1603.0715 728 4291887103
65.944954 1603.2239 729 4291821567
67.15596 1603.3761 730 4291756031
68.256882 1603.3761 730 4291690495
69.473396 1603.5284 731 4291952639
70.693581 1603.6808 732 4291887103
71.917435 1603.833 733 4292083711
73.387154 1604.2899 736 4291493887
74.622017 1604.4421 737 4291362815
75.86055 1604.5945 738 4291428351
77.102753 1604.7468 739 4291493887
78.348625 1604.899 740 4291493887
79.728439 1605.2036 742 4291887103
81.247704 1605.6605 745 4291493887
82.376144 1605.6605 745 4291428351
83.368805 1605.5083 744 4291428351
22.78899 1605.4348 751 4283629592
23.92844 1605.4348 751 4284219425
25.06789 1605.4348 751 4285276532
26.165138 1605.2844 750 4286592391
27.126606 1604.6826 746 4285474678
28.119267 1604.2312 743 4282712140
29.196331 1604.0807 742 4284678162
30.220184 1603.7798 740 4285071384
31.288073 1603.6294 739 4285005865
32.405506 1603.6294 739 4285071402
33.467892 1603.4789 738 4285464622
34.469727 1603.178 736 4285399084
35.58165 1603.178 736 4285661236
36.572475 1602.8771 734 4285530163
37.680733 1602.8771 734 4285792302
38.72477 1602.7266 733 4285857839
39.765137 1602.5762 732 4285661237
40.801834 1602.4257 731 4285726774
41.834862 1602.2753 730 4285857843
42.93578 1602.2753 730 4286119991
43.963303 1602.1248 729 4286056262
45.062386 1602.1248 729 4286122055
46.161469 1602.1248 729 4285668170
47.181652 1601.9744 728 4288365427
48.2789 1601.9744 728 4287123335
49.376148 1601.9744 728 4286070646
50.388992 1601.8239 727 4285475947
51.484406 1601.8239 727 4287318151
52.491745 1601.6733 726 4285945530
53.58532 1601.6733 726 4288248285
54.678898 1601.6733 726 4287989235
55.866055 1601.8239 727 4286344666
56.961468 1601.8239 727 4283005613
58.056881 1601.8239 727 4288334847
59.152294 1601.8239 727 4287748863
60.348625 1601.9744 728 4290838527
61.445873 1601.9744 728 4291690495
62.647705 1602.1248 729 4291493887
63.746788 1602.1248 729 4291690495
64.845871 1602.1248 729 4291624959
66.055046 1602.2753 730 4291493887
67.267891 1602.4257 731 4291559423
68.370644 1602.4257 731 4291493887
69.588989 1602.5762 732 4291690495
70.811012 1602.7266 733 4291035135
72.036697 1602.8771 734 4291231743
73.508255 1603.3285 737 4291493887
74.744957 1603.4789 738 4291428351
75.985321 1603.6294 739 4291428351
77.229355 1603.7798 740 4291428351
78.605507 1604.0807 742 4291166207
79.858719 1604.2312 743 4291493887
80.98349 1604.2312 743 4291624959
82.242203 1604.3816 744 4291624959
83.368805 1604.3816 744 4291690495
22.825687 1604.4441 752 4283567407
23.92844 1604.2954 751 4284685889
25.06789 1604.2954 751 4284822126
26.165138 1604.1467 750 4284953713
27.302752 1604.1467 750 4285017723
28.165138 1603.255 744 4283109725
29.244038 1603.1064 743 4284022820
30.269724 1602.8092 741 4284219431
31.339449 1602.6605 740 4284809781
32.405506 1602.512 739 4285072697
33.467892 1602.3633 738 4285071411
34.526604 1602.2147 737 4285005874
35.58165 1602.066 736 4285467191
36.693577 1602.066 736 4285993536
37.680733 1601.7688 734 4285666624
38.72477 1601.6202 733 4285732417
39.831192 1601.6202 733 4285401678
40.869724 1601.4716 732 4285072969
41.974312 1601.4716 732 4285204565
43.007339 1601.323 731 4286059874
44.036697 1601.1743 730 4286129234
45.137615 1601.1743 730 4286721372
46.238533 1601.1743 730 4286526807
47.339451 1601.1743 730 4288895355
48.440369 1601.1743 730 4287254151
49.458717 1601.0256 729 4286135926
50.557796 1601.0256 729 4285021559
51.570641 1600.8771 728 4290679757
52.667889 1600.8771 728 4292070399
53.765137 1600.8771 728 4293188607
54.954128 1601.0256 729 4292599551
56.053211 1601.0256 729 4287138751
57.152294 1601.0256 729 4283137991
58.251377 1601.0256 729 4287809279
59.35046 1601.0256 729 4287748863
60.550457 1601.1743 730 4291035135
61.548622 1601.0256 729 4292280319
62.752293 1601.1743 730 4291756031
63.85321 1601.1743 730 4291624959
64.954132 1601.1743 730 4291624959
66.055046 1601.1743 730 4291690495
67.267891 1601.323 731 4291690495
68.370644 1601.323 731 4291559423
69.473396 1601.323 731 4291756031
70.811012 1601.6202 733 4291362815
72.27523 1602.066 736 4291297279
73.629356 1602.3633 738 4291821567
74.867889 1602.512 739 4291952639
76.110092 1602.6605 740 4291690495
77.355965 1602.8092 741 4291952639
78.605507 1602.9578 742 4291493887
79.858719 1603.1064 743 4291624959
81.247704 1603.4037 745 4291690495
82.510094 1603.5522 746 4291756031
83.640366 1603.5522 746 4291887103
22.825687 1603.3027 752 4283175739
23.966972 1603.3027 752 4284886356
25.108257 1603.3027 752 4284300146
26.20734 1603.156 751 4284234353
27.346788 1603.156 751 4284428652
28.348623 1602.7156 748 4282783827
29.291742 1602.1284 744 4284089386
30.319265 1601.8348 742 4284352558
31.390825 1601.6881 741 4284614446
32.405506 1601.3945 739 4284811826
33.522934 1601.3945 739 4284942131
34.583485 1601.2477 738 4285073717
35.640366 1601.101 737 4285536319
36.693577 1600.9541 736 4285799234
37.805504 1600.9541 736 4285341767
38.78899 1600.6605 734 4285933905
39.831192 1600.5138 733 4285475666
40.937614 1600.5138 733 4285212494
42.044037 1600.5138 733 4285078859
43.078899 1600.3669 732 4285539410
44.183487 1600.3669 732 4286262615
45.212845 1600.2202 731 4286460251
46.315598 1600.2202 731 4286397536
47.41835 1600.2202 731 4287976567
48.521099 1600.2202 731 4286795135
49.541283 1600.0734 730 4285874033
50.6422 1600.0734 730 4284170356
51.656879 1599.9266 729 4289302210
52.844036 1600.0734 730 4290236415
53.944954 1600.0734 730 4291157247
55.045872 1600.0734 730 4291027711
56.14679 1600.0734 730 4286619343
57.343121 1600.2202 731 4284186817
58.348625 1600.0734 730 4287805432
59.548622 1600.2202 731 4288403711
60.651375 1600.2202 731 4291559423
61.651375 1600.0734 730 4292345855
62.752293 1600.0734 730 4291821567
63.85321 1600.0734 730 4291821567
64.954132 1600.0734 730 4291821567
66.165138 1600.2202 731 4291690495
67.267891 1600.2202 731 4291559423
68.370644 1600.2202 731 4291297279
69.588989 1600.3669 732 4291624959
70.928444 1600.6605 734 4291100671
72.394493 1601.101 737 4291166207
73.629356 1601.2477 738 4292018175
74.867889 1601.3945 739 4292018175
76.110092 1601.5413 740 4291100671
77.355965 1601.6881 741 4291493887
78.733948 1601.9817 743 4291428351
80.119263 1602.2753 745 4291428351
81.644035 1602.7156 748 4291231743
82.777985 1602.7156 748 4291690495
22.899082 1602.4514 754 4282979913
24.005505 1602.3064 753 4284822117
25.108257 1602.1615 752 4284761199
26.20734 1602.0165 751 4285024370
27.346788 1602.0165 751 4284626528
28.394495 1601.7266 749 4283705682
29.291742 1601.0018 744 4284425290
30.368807 1600.8569 743 4284557133
31.442202 1600.7119 742 4285081149
32.458717 1600.422 740 4285278271
33.57798 1600.422 740 4285342019
34.640366 1600.2771 739 4285473606
35.699081 1600.1321 738 4285540423
36.754128 1599.9872 737 4285343301
37.930275 1600.1321 738 4285540173
38.78899 1599.5522 734 4285803602
39.897247 1599.5522 734 4285805137
41.005505 1599.5522 734 4285739344
42.044037 1599.4073 733 4285804117
43.150459 1599.4073 733 4286198619
44.256882 1599.4073 733 4286265688
45.288074 1599.2623 732 4286462811
46.392662 1599.2623 732 4286397288
47.49725 1599.2623 732 4287647099
48.601833 1599.2623 732 4286729081
49.623852 1599.1174 731 4285873772
50.726604 1599.1174 731 4284431468
51.743118 1598.9725 730 4288247462
52.93211 1599.1174 731 4288984298
54.034863 1599.1174 731 4291484671
55.229359 1599.2623 732 4291683839
56.240368 1599.1174 731 4289512691
57.438534 1599.2623 732 4285111285
58.445873 1599.1174 731 4286690047
59.647705 1599.2623 732 4288141823
60.752293 1599.2623 732 4291493887
61.754128 1599.1174 731 4292476927
62.961468 1599.2623 732 4292214783
63.959633 1599.1174 731 4291887103
65.062386 1599.1174 731 4291887103
66.165138 1599.1174 731 4291690495
67.379814 1599.2623 732 4291690495
68.484406 1599.2623 732 4291493887
69.70459 1599.4073 733 4291821567
70.928444 1599.5522 734 4291690495
72.513763 1600.1321 738 4291624959
73.750458 1600.2771 739 4291887103
74.990829 1600.422 740 4292083711
76.359634 1600.7119 742 4291428351
77.609177 1600.8569 743 4291821567
79.119263 1601.2917 746 4291887103
80.640366 1601.7266 749 4291887103
81.776146 1601.7266 749 4291428351
83.045868 1601.8716 750 4291624959
22.899082 1601.3064 754 4282980686
24.005505 1601.1633 753 4284559974
25.108257 1601.0201 752 4284104813
26.249542 1601.0201 752 4284434035
27.346788 1600.8771 751 4284233573
28.440367 1600.7339 750 4283444058
29.482569 1600.4478 748 4284360781
30.46789 1600.0183 745 4284623952
31.493578 1599.7321 743 4284689484
32.565136 1599.589 742 4284623691
33.633026 1599.4459 741 4285080899
34.697247 1599.3027 740 4285146692
35.757797 1599.1597 739 4285212748
36.814678 1599.0165 738 4285344334
37.930275 1599.0165 738 4285344082
39.045872 1599.0165 738 4285541461
40.095413 1598.8734 737 4285673056
41.141285 1598.7302 736 4285804899
42.113762 1598.4441 734 4285805397
43.222019 1598.4441 734 4285937239
44.330276 1598.4441 734 4286265436
45.363304 1598.3009 733 4286265436
46.469727 1598.3009 733 4286199657
47.576145 1598.3009 733 4287581053
48.601833 1598.1578 732 4286401411
49.706421 1598.1578 732 4285743480
50.811008 1598.1578 732 4284956265
51.915596 1598.1578 732 4286403711
53.020184 1598.1578 732 4286418109
54.124771 1598.1578 732 4291286783
55.229359 1598.1578 732 4292472575
56.333946 1598.1578 732 4289511911
57.438534 1598.1578 732 4284719057
58.543118 1598.1578 732 4286692847
59.746788 1598.3009 733 4288863231
60.85321 1598.3009 733 4291821567
61.959633 1598.3009 733 4292280319
63.066055 1598.3009 733 4291821567
64.172478 1598.3009 733 4291493887
65.2789 1598.3009 733 4291690495
66.385323 1598.3009 733 4291493887
67.491745 1598.3009 733 4291624959
68.711929 1598.4441 734 4291821567
70.051376 1598.7302 736 4292018175
71.515594 1599.1597 739 4291952639
72.871559 1599.4459 741 4291821567
73.992661 1599.4459 741 4291559423
75.236694 1599.589 742 4291756031
76.484406 1599.7321 743 4291362815
77.735779 1599.8752 744 4291624959
79.376144 1600.4478 748 4291952639
80.770645 1600.7339 750 4291952639
81.908257 1600.7339 750 4291428351
83.045868 1600.7339 750 4291428351
24.005505 1600.0201 753 4284428134
25.148624 1600.0201 753 4284498526
26.249542 1599.8789 752 4284630112
27.346788 1599.7377 751 4284298079
28.440367 1599.5963 750 4283837528
29.530275 1599.4551 749 4284230228
30.616514 1599.3137 748 4284230228
31.596331 1598.8899 745 4284622676
32.671558 1598.7487 744 4284556883
33.743118 1598.6073 743 4284949060
34.811008 1598.4661 742 4285080647
35.875229 1598.3247 741 4285146188
36.875229 1598.0422 739 4285409359
37.992661 1598.0422 739 4285278039
39.110092 1598.0422 739 4285540955
40.161469 1597.9009 738 4285738600
41.277065 1597.9009 738 4285738600
42.322937 1597.7596 737 4285738068
43.365139 1597.6184 736 4286198619
44.330276 1597.3358 734 4286199643
45.438534 1597.3358 734 4286265436
46.469727 1597.1945 733 4286134128
47.576145 1597.1945 733 4287647110
48.682568 1597.1945 733 4287123587
49.78899 1597.1945 733 4286465400
50.895412 1597.1945 733 4285481326
52.001835 1597.1945 733 4285415533
53.108257 1597.1945 733 4283521946
54.21468 1597.1945 733 4290430207
55.321102 1597.1945 733 4291679743
56.427525 1597.1945 733 4288982251
57.533943 1597.1945 733 4285569235
58.737614 1597.3358 734 4288267005
59.845871 1597.3358 734 4289192191
60.954128 1597.3358 734 4291821567
62.062386 1597.3358 734 4292083711
63.170643 1597.3358 734 4291690495
64.2789 1597.3358 734 4291690495
65.387154 1597.3358 734 4292018175
66.495415 1597.3358 734 4292345855
67.827522 1597.6184 736 4292476927
69.053207 1597.7596 737 4291887103
70.513763 1598.1835 740 4291887103
71.750458 1598.3247 741 4291952639
72.990829 1598.4661 742 4292280319
74.113762 1598.4661 742 4292345855
75.359634 1598.6073 743 4292476927
76.609177 1598.7487 744 4291952639
77.988991 1599.0312 746 4291821567
79.504585 1599.4551 749 4291952639
80.900917 1599.7377 751 4292411391
82.040367 1599.7377 751 4291493887
25.188992 1599.0165 754 4284497261
26.291742 1598.8771 753 4284694641
27.390825 1598.7377 752 4284035427
28.486238 1598.5981 751 4283574876
29.577982 1598.4587 750 4284230226
30.715597 1598.4587 750 4284230226
31.647707 1597.9009 746 4284751947
32.777981 1597.9009 746 4285014863
33.798164 1597.6221 744 4285080899
34.867889 1597.4825 743 4285146692
35.933945 1597.3431 742 4285212748
36.99633 1597.2036 741 4285344334
38.055046 1597.0642 740 4285475666
39.174313 1597.0642 740 4285541459
40.227524 1596.9248 739 4285803615
41.344955 1596.9248 739 4285935202
42.392662 1596.7853 738 4285869906
43.436699 1596.6459 737 4286067542
44.477066 1596.5065 736 4286265436
45.588989 1596.5065 736 4286265436
46.700916 1596.5065 736 4286134128
47.655045 1596.2275 734 4287318401
48.763302 1596.2275 734 4287057791
49.871559 1596.2275 734 4286531447
50.979816 1596.2275 734 4286003804
52.088074 1596.2275 734 4286201440
53.196331 1596.2275 734 4284370550
54.304588 1596.2275 734 4291147485
55.412846 1596.2275 734 4290891775
56.521099 1596.2275 734 4287996903
57.629356 1596.2275 734 4283008201
58.737614 1596.2275 734 4288140031
60.044037 1596.5065 736 4289194239
61.155964 1596.5065 736 4291428351
62.267891 1596.5065 736 4291756031
63.484406 1596.6459 737 4291624959
64.598167 1596.6459 737 4291624959
65.711929 1596.6459 737 4291821567
66.935783 1596.7853 738 4291821567
68.1633 1596.9248 739 4291821567
69.394493 1597.0642 740 4291493887
70.744957 1597.3431 742 4291887103
71.867889 1597.3431 742 4292018175
73.110092 1597.4825 743 4291887103
74.234863 1597.4825 743 4291887103
75.482567 1597.6221 744 4292083711
76.733948 1597.7615 745 4292018175
78.368805 1598.3192 749 4291887103
79.633026 1598.4587 750 4291035135
81.031189 1598.7377 752 4291362815
82.172478 1598.7377 752 4291624959
25.148624 1597.7339 753 4284300911
26.291742 1597.7339 753 4284300911
27.390825 1597.5963 752 4284034661
28.53211 1597.5963 752 4283837026
29.625689 1597.4587 751 4284426830
30.715597 1597.321 750 4284360781
31.750458 1597.0459 748 4284751947
32.884403 1597.0459 748 4284949070
33.85321 1596.6331 745 4285015355
34.981651 1596.6331 745 4285146942
35.992661 1596.3578 743 4285212496
37.056881 1596.2202 742 4285344082
38.179817 1596.2202 742 4285408592
39.174313 1595.9449 740 4285671764
40.293579 1595.9449 740 4285737044
41.412846 1595.9449 740 4286066008
42.462387 1595.8074 739 4286001999
43.508255 1595.6697 738 4286067792
44.550457 1595.5321 737 4286199643
45.664219 1595.5321 737 4286199643
46.777981 1595.5321 737 4286264948
47.891743 1595.5321 737 4287186050
48.92477 1595.3945 736 4286926194
50.036697 1595.3945 736 4286465643
51.148624 1595.3945 736 4286069854
52.260551 1595.3945 736 4286530405
53.372478 1595.3945 736 4285221500
54.484406 1595.3945 736 4287655841
55.596329 1595.3945 736 4287332825
56.708256 1595.3945 736 4286740687
57.820183 1595.3945 736 4283466192
59.029358 1595.5321 737 4288795135
60.14312 1595.5321 737 4289981695
61.256882 1595.5321 737 4292214783
62.473396 1595.6697 738 4292411391
63.588989 1595.6697 738 4292018175
64.70459 1595.6697 738 4291624959
65.928444 1595.8074 739 4291821567
67.045868 1595.8074 739 4292018175
68.387154 1596.0825 741 4291887103
69.508255 1596.0825 741 4291821567
70.744957 1596.2202 742 4292476927
71.985321 1596.3578 743 4291952639
73.229355 1596.4954 744 4291821567
74.477066 1596.6331 745 4291887103
75.728439 1596.7706 746 4291952639
77.108253 1597.0459 748 4291952639
78.495415 1597.321 750 4292083711
79.761467 1597.4587 751 4291428351
81.031189 1597.5963 752 4291428351
82.172478 1597.5963 752 4292018175
26.333944 1596.7266 754 4284234103
27.434862 1596.5908 753 4284166500
28.53211 1596.4551 752 4283705949
29.673395 1596.4551 752 4284229446
30.715597 1596.1835 750 4284295239
31.801834 1596.0477 749 4284622926
32.937614 1596.0477 749 4284754255
33.908257 1595.6404 746 4285016389
35.038532 1595.6404 746 4285147718
36.051376 1595.3688 744 4285212746
37.177982 1595.3688 744 4285278539
38.242203 1595.233 743 4285605707
39.302753 1595.0973 742 4285737294
40.293579 1594.8257 740 4285868877
41.412846 1594.8257 740 4285934670
42.462387 1594.6899 739 4286066771
43.579815 1594.6899 739 4286066771
44.697247 1594.6899 739 4286198371
45.739449 1594.5541 738 4286067042
46.855045 1594.5541 738 4286066801
47.970642 1594.5541 738 4287382661
49.005505 1594.4183 737 4286925944
50.119267 1594.4183 737 4286596979
51.317432 1594.5541 738 4286464359
52.34679 1594.4183 737 4286727532
53.460552 1594.4183 737 4285875832
54.57431 1594.4183 737 4287981464
55.596329 1594.2826 736 4286803128
56.801834 1594.4183 737 4287131837
57.915596 1594.4183 737 4284056278
59.126606 1594.5541 738 4289517055
60.242203 1594.5541 738 4290376703
61.3578 1594.5541 738 4291821567
62.576145 1594.6899 739 4291297279
63.693577 1594.6899 739 4291362815
64.811012 1594.6899 739 4291690495
66.036697 1594.8257 740 4291821567
67.266052 1594.9614 741 4291952639
68.499084 1595.0973 742 4291887103
69.622017 1595.0973 742 4291690495
70.86055 1595.233 743 4292149247
72.102753 1595.3688 744 4291756031
73.348625 1595.5046 745 4291756031
74.598167 1595.6404 746 4291952639
75.974312 1595.9119 748 4291887103
77.357796 1596.1835 750 4291493887
78.748627 1596.4551 752 4291690495
80.018349 1596.5908 753 4291493887
81.42202 1596.8624 755 4291756031
82.833031 1597.1339 757 4292214783
83.98349 1597.1339 757 4292149247
26.376146 1595.7156 755 4283905651
27.478899 1595.5817 754 4284362339
28.577982 1595.4478 753 4283967581
29.673395 1595.3137 752 4284227396
30.765137 1595.1798 751 4284293189
31.85321 1595.0459 750 4284751441
32.990826 1595.0459 750 4285278041
34.018349 1594.778 748 4285278791
35.038532 1594.5101 746 4285212998
36.110092 1594.3761 745 4285409098
37.238533 1594.3761 745 4285409098
38.304588 1594.2422 744 4285277760
39.366974 1594.1083 743 4285540675
40.491745 1594.1083 743 4285671502
41.548622 1593.9744 742 4285868625
42.601833 1593.8403 741 4286066519
43.651375 1593.7064 740 4286132313
44.844036 1593.8403 741 4286198371
45.889908 1593.7064 740 4286000993
46.93211 1593.5725 739 4286197886
48.049541 1593.5725 739 4287513745
49.166973 1593.5725 739 4286925429
50.284405 1593.5725 739 4286662000
51.48624 1593.7064 740 4286596729
52.519264 1593.5725 739 4286925438
53.636696 1593.5725 739 4286401411
54.754128 1593.5725 739 4287322513
55.779816 1593.4385 738 4286406816
56.988991 1593.5725 739 4287459504
58.106422 1593.5725 739 4283533280
59.223854 1593.5725 739 4289388799
60.341286 1593.5725 739 4291428351
61.559631 1593.7064 740 4292345855
62.678898 1593.7064 740 4292083711
63.798164 1593.7064 740 4291887103
65.023849 1593.8403 741 4291756031
66.144951 1593.8403 741 4292149247
67.376144 1593.9744 742 4291887103
68.499084 1593.9744 742 4291756031
69.735779 1594.1083 743 4291756031
70.976151 1594.2422 744 4292149247
72.220184 1594.3761 745 4292476927
73.706421 1594.778 748 4292476927
74.84037 1594.778 748 4291952639
76.220184 1595.0459 750 4291952639
77.607338 1595.3137 752 4291493887
78.875229 1595.4478 753 4291690495
80.018349 1595.4478 753 4291821567
81.42202 1595.7156 755 4292083711
82.833031 1595.9835 757 4292149247
27.522936 1594.5688 755 4284229987
28.669725 1594.5688 755 4283769436
29.721102 1594.3046 753 4284553799
30.814678 1594.1725 752 4284685385
31.85321 1593.9082 750 4284619342
32.990826 1593.9082 750 4285277015
34.073395 1593.7761 749 4285147468
35.152294 1593.644 748 4285213261
36.168808 1593.3798 746 4285343053
37.299084 1593.3798 746 4285408846
38.366974 1593.2477 745 4285409098
39.495415 1593.2477 745 4285672014
40.623852 1593.2477 745 4285737044
41.684402 1593.1156 744 4286131801
42.741283 1592.9835 743 4286066269
43.794495 1592.8513 742 4286066269
44.917431 1592.8513 742 4286197604
45.965137 1592.7192 741 4287316341
47.086239 1592.7192 741 4286925692
48.20734 1592.7192 741 4287057278
49.247707 1592.5872 740 4287056760
50.449543 1592.7192 741 4286596209
51.570641 1592.7192 741 4286529387
52.691742 1592.7192 741 4287318903
53.812843 1592.7192 741 4286731141
54.933945 1592.7192 741 4287520913
55.963303 1592.5872 740 4286538656
57.176147 1592.7192 741 4287722931
58.297249 1592.7192 741 4283205862
59.321102 1592.5872 740 4289390335
60.440369 1592.5872 740 4291035135
61.660549 1592.7192 741 4292018175
62.781651 1592.7192 741 4292280319
63.902752 1592.7192 741 4292018175
65.130272 1592.8513 742 4291887103
66.253212 1592.8513 742 4291952639
67.486237 1592.9835 743 4291756031
68.611008 1592.9835 743 4291821567
69.849541 1593.1156 744 4291952639
71.091743 1593.2477 745 4292083711
72.337616 1593.3798 746 4291952639
73.706421 1593.644 748 4291952639
74.961472 1593.7761 749 4291756031
76.220184 1593.9082 750 4291821567
77.607338 1594.1725 752 4291690495
78.875229 1594.3046 753 4291690495
80.018349 1594.3046 753 4291493887
81.42202 1594.5688 755 4291690495
82.56881 1594.5688 755 4291166207
27.61101 1593.6826 757 4284162916
28.669725 1593.422 755 4284031329
29.768806 1593.2917 754 4284292689
30.86422 1593.1615 753 4284226896
31.955963 1593.0312 752 4284553297
33.044037 1592.9009 751 4284882261
34.128441 1592.7706 750 4285014347
35.152294 1592.5101 748 4285080397
36.28624 1592.5101 748 4285014100
37.299084 1592.2495 746 4285145686
38.429359 1592.2495 746 4285540173
39.495415 1592.1193 745 4285540173
40.623852 1592.1193 745 4285801817
41.752293 1592.1193 745 4286130781
42.811008 1591.989 744 4286196572
43.866055 1591.8588 743 4286130779
44.990826 1591.8588 743 4286066018
46.040367 1591.7284 742 4287776892
47.163303 1591.7284 742 4287386241
48.20734 1591.5981 741 4288175757
49.328442 1591.5981 741 4287452540
50.449543 1591.5981 741 4286663024
51.655045 1591.7284 742 4286596459
52.777981 1591.7284 742 4287057010
53.900917 1591.7284 742 4286599809
55.023853 1591.7284 742 4287718034
56.14679 1591.7284 742 4286474154
57.269726 1591.7284 742 4287658685
58.392662 1591.7284 742 4283272684
59.515594 1591.7284 742 4289523199
60.638531 1591.7284 742 4291821567
61.761467 1591.7284 742 4292411391
62.884403 1591.7284 742 4292083711
64.007339 1591.7284 742 4291952639
65.236694 1591.8588 743 4291887103
66.361465 1591.8588 743 4291756031
67.596329 1591.989 744 4291756031
68.834862 1592.1193 745 4292083711
69.963303 1592.1193 745 4292018175
71.207336 1592.2495 746 4292018175
72.572479 1592.5101 748 4292083711
73.825691 1592.6404 749 4292083711
74.961472 1592.6404 749 4291887103
76.220184 1592.7706 750 4292018175
77.607338 1593.0312 752 4291624959
78.875229 1593.1615 753 4291624959
80.27523 1593.422 755 4291624959
81.682571 1593.6826 757 4292018175
26.67156 1593.1743 762 4283906419
27.61101 1592.5321 757 4283965273
28.761467 1592.5321 757 4283570515
29.816513 1592.2753 755 4284420943
30.913761 1592.1467 754 4284486992
32.058716 1592.1467 754 4284619342
33.097248 1591.8899 752 4284948306
34.183487 1591.7615 751 4285079372
35.209175 1591.5046 749 4285210959
36.28624 1591.3761 748 4285014100
37.420185 1591.3761 748 4284882513
38.554127 1591.3761 748 4285342799
39.559631 1591.1193 746 4285605970
40.689907 1591.1193 746 4285671250
41.820183 1591.1193 746 4286197595
42.880733 1590.9908 745 4286197593
44.009174 1590.9908 745 4286066006
45.06422 1590.8624 744 4286065766
46.115597 1590.7339 743 4287579261
47.240368 1590.7339 743 4286730364
48.28624 1590.6055 742 4287848589
49.409176 1590.6055 742 4287584651
50.532108 1590.6055 742 4286532220
51.739449 1590.7339 743 4286793327
52.86422 1590.7339 743 4287385207
53.988991 1590.7339 743 4286796936
55.023853 1590.6055 742 4287651989
56.14679 1590.6055 742 4286343077
57.363304 1590.7339 743 4287593143
58.392662 1590.6055 742 4283075820
59.515594 1590.6055 742 4289721087
60.638531 1590.6055 742 4291952639
61.862385 1590.7339 743 4292083711
62.987156 1590.7339 743 4291624959
64.216515 1590.8624 744 4291756031
65.343117 1590.8624 744 4291887103
66.57798 1590.9908 745 4291756031
67.706421 1590.9908 745 4291493887
68.946793 1591.1193 746 4291821567
70.077065 1591.1193 746 4292083711
71.43853 1591.3761 748 4292083711
72.572479 1591.3761 748 4292214783
73.944954 1591.6331 750 4292083711
75.203667 1591.7615 751 4291887103
76.466057 1591.8899 752 4291887103
77.732109 1592.0183 753 4291821567
79.001831 1592.1467 754 4291821567
80.532112 1592.5321 757 4291690495
81.812843 1592.6605 758 4291756031
26.67156 1592.0146 762 4284235636
27.787155 1591.8881 761 4283769938
28.85321 1591.6349 759 4283309387
29.911926 1591.3816 757 4284289098
30.963303 1591.1284 755 4284354891
32.058716 1591.0018 754 4284617041
33.150459 1590.8752 753 4284946006
34.238533 1590.7487 752 4284882000
35.266056 1590.4954 750 4285079122
36.403671 1590.4954 750 4285014100
37.480736 1590.3688 749 4285079893
38.554127 1590.2422 748 4285605966
39.688072 1590.2422 748 4285672016
40.822018 1590.2422 748 4285868373
41.820183 1589.989 746 4286328924
42.950459 1589.989 746 4286262615
44.080734 1589.989 746 4286328665
45.137615 1589.8624 745 4286197104
46.266056 1589.8624 745 4287512964
47.317432 1589.7358 744 4287123575
48.444038 1589.7358 744 4288373642
49.48991 1589.6091 743 4287848077
50.614677 1589.6091 743 4286268789
51.739449 1589.6091 743 4286793350
52.86422 1589.6091 743 4287780245
53.988991 1589.6091 743 4287060370
55.113762 1589.6091 743 4287586970
56.238533 1589.6091 743 4286145441
57.363304 1589.6091 743 4287395508
58.488075 1589.6091 743 4283012846
59.612843 1589.6091 743 4289657599
60.737614 1589.6091 743 4293263359
61.963303 1589.7358 744 4292804607
63.089909 1589.7358 744 4292214783
64.321098 1589.8624 745 4292214783
65.449539 1589.8624 745 4292083711
66.686241 1589.989 746 4292018175
67.816513 1589.989 746 4291952639
69.170639 1590.2422 748 4292018175
70.304588 1590.2422 748 4292018175
71.554131 1590.3688 749 4292083711
72.807343 1590.4954 750 4292018175
74.064217 1590.6221 751 4291690495
75.324768 1590.7487 752 4291887103
76.588989 1590.8752 753 4291887103
77.981651 1591.1284 755 4292149247
79.128441 1591.1284 755 4292607999
80.660553 1591.5083 758 4292280319
82.203667 1591.8881 761 4291952639
83.361465 1591.8881 761 4292149247
24.46789 1591.2294 765 4285022824
25.633028 1591.2294 765 4284828039
26.67156 1590.8551 762 4284170108
27.787155 1590.7302 761 4283703380
28.944954 1590.7302 761 4283571793
30.055046 1590.6055 760 4284354891
31.161469 1590.4807 759 4284486220
32.110092 1589.9817 755 4284618310
33.203671 1589.8569 754 4284947019
34.238533 1589.6073 752 4285012049
35.322937 1589.4825 751 4285275220
36.403671 1589.3578 750 4285275989
37.541283 1589.3578 750 4285604953
38.616512 1589.233 749 4285671764
39.752293 1589.233 749 4285737557
40.822018 1589.1083 748 4286000726
41.955963 1589.1083 748 4286198106
43.089909 1589.1083 748 4286197343
44.080734 1588.8588 746 4286131549
45.21101 1588.8588 746 4286592110
46.341286 1588.8588 746 4287513212
47.471561 1588.8588 746 4287385978
48.522934 1588.7339 745 4288307080
49.651375 1588.7339 745 4288044941
50.779816 1588.7339 745 4286597494
51.823853 1588.6091 744 4286793350
52.950459 1588.6091 744 4287714452
54.077065 1588.6091 744 4287126678
55.203671 1588.6091 744 4287258264
56.330276 1588.6091 744 4286210987
57.456882 1588.6091 744 4287526846
58.583485 1588.6091 744 4284195069
59.710091 1588.6091 744 4290510847
60.93578 1588.7339 745 4292935679
62.06422 1588.7339 745 4292607999
63.295414 1588.8588 746 4292083711
64.42569 1588.8588 746 4292083711
65.555962 1588.8588 746 4292083711
66.902756 1589.1083 748 4292083711
68.036697 1589.1083 748 4292083711
69.170639 1589.1083 748 4292083711
70.41835 1589.233 749 4291952639
71.669724 1589.3578 750 4291952639
72.924774 1589.4825 751 4291821567
74.183487 1589.6073 752 4291821567
75.324768 1589.6073 752 4292018175
76.588989 1589.7321 753 4292018175
77.981651 1589.9817 755 4291690495
79.381653 1590.2312 757 4291756031
80.532112 1590.2312 757 4292280319
82.333946 1590.8551 762 4292083711
83.493576 1590.8551 762 4291887103
24.46789 1590.0642 765 4285547621
25.511927 1589.6954 762 4285287306
26.67156 1589.6954 762 4284431998
27.831192 1589.6954 762 4283703380
28.944954 1589.5725 761 4283703380
30.055046 1589.4496 760 4284226894
31.21101 1589.4496 760 4284161101
32.315598 1589.3267 759 4284814669
33.363304 1589.0807 757 4284880463
34.293579 1588.589 753 4285012049
35.379818 1588.4661 752 4285275220
36.462387 1588.3431 751 4285408844
37.601833 1588.3431 751 4285540173
38.678898 1588.2202 750 4285801817
39.752293 1588.0973 749 4285867610
40.888073 1588.0973 749 4285868125
41.955963 1587.9744 748 4286394469
43.089909 1587.9744 748 4286394721
44.223854 1587.9744 748 4286526307
45.3578 1587.9744 748 4286461807
46.491745 1587.9744 748 4286988151
47.625687 1587.9744 748 4287320439
48.601833 1587.7284 746 4287649147
49.732109 1587.7284 746 4287517309
50.862385 1587.7284 746 4286793842
51.992661 1587.7284 746 4286661517
53.036697 1587.6055 745 4287122068
54.165138 1587.6055 745 4286796180
55.293579 1587.6055 745 4287059609
56.42202 1587.6055 745 4285555373
57.550457 1587.6055 745 4287923921
58.678898 1587.6055 745 4284591359
59.904587 1587.7284 746 4290641919
61.034863 1587.7284 746 4292935679
62.165138 1587.7284 746 4292411391
63.500916 1587.9744 748 4292149247
64.634865 1587.9744 748 4292149247
65.768806 1587.9744 748 4292280319
66.902756 1587.9744 748 4292476927
68.14679 1588.0973 749 4292214783
69.28257 1588.0973 749 4292214783
70.532112 1588.2202 750 4292214783
71.785324 1588.3431 751 4292214783
73.042198 1588.4661 752 4292018175
74.30275 1588.589 753 4292018175
75.445869 1588.589 753 4292214783
76.834862 1588.8348 755 4292149247
78.355965 1589.2036 758 4291624959
79.508255 1589.2036 758 4291690495
81.43119 1589.9413 764 4292083711
82.594498 1589.9413 764 4292083711
83.889908 1590.0642 765 4291887103
24.46789 1588.899 765 4285876073
25.633028 1588.899 765 4285483664
26.755962 1588.778 764 4284299646
27.919266 1588.778 764 4283638609
28.990826 1588.5358 762 4283507023
30.102753 1588.4147 761 4284685648
31.26055 1588.4147 761 4284685648
32.366974 1588.2936 760 4284882250
33.469727 1588.1725 759 4284816457
34.51376 1587.9303 757 4285078859
35.436699 1587.4459 753 4285210446
36.521099 1587.3247 752 4285473365
37.662384 1587.3247 752 4285933916
38.741283 1587.2036 751 4285934418
39.816513 1587.0825 750 4285868625
40.954128 1587.0825 750 4286131031
42.023853 1586.9614 749 4286394204
43.159634 1586.9614 749 4286329698
44.223854 1586.8403 748 4286395491
45.3578 1586.8403 748 4286594162
46.491745 1586.8403 748 4287186300
47.625687 1586.8403 748 4287123323
48.759632 1586.8403 748 4287518081
49.893578 1586.8403 748 4286992769
51.027523 1586.8403 748 4286334838
