# .PCD v0.7 - Point Cloud Data file format
VERSION 0.7
FIELDS x y z rgb
SIZE 4 4 4 4
TYPE F F F U
COUNT 1 1 1 1
WIDTH 1374
HEIGHT 1
VIEWPOINT 0 0 0 1 0 0 0
POINTS 1374
DATA ascii
37.541283 1608.6973 750 4284419151
38.616512 1608.5413 749 4284879159
39.688072 1608.3854 748 4285076281
40.689907 1608.0734 746 4285075770
41.752293 1607.9175 745 4285009721
42.811008 1607.7615 744 4284749126
43.866055 1607.6055 743 4284617797
44.990826 1607.6055 743 4283897681
46.040367 1607.4496 742 4284621404
47.086239 1607.2936 741 4283967572
48.20734 1607.2936 741 4283901778
49.247707 1607.1376 740 4283967068
50.366974 1607.1376 740 4284427619
51.401836 1606.9817 739 4284558425
52.433029 1606.8257 738 4284887390
53.460552 1606.6697 737 4284822099
54.484406 1606.5138 736 4285808994
55.596329 1606.5138 736 4285612924
56.708256 1606.5138 736 4285678717
57.915596 1606.6697 737 4285284713
58.93211 1606.5138 736 4285153126
60.044037 1606.5138 736 4284301161
61.256882 1606.6697 737 4286538123
62.370644 1606.6697 737 4286804923
63.484406 1606.6697 737 4287989196
64.598167 1606.6697 737 4286612951
65.711929 1606.6697 737 4288126191
66.825691 1606.6697 737 4286032383
68.051376 1606.8257 738 4289980159
69.166969 1606.8257 738 4291952127
70.28257 1606.8257 738 4291820543
71.398163 1606.8257 738 4291559423
72.633026 1606.9817 739 4291624959
73.750458 1606.9817 739 4291492863
74.867889 1606.9817 739 4291492863
76.110092 1607.1376 740 4291427839
77.355965 1607.2936 741 4291362047
78.605507 1607.4496 742 4291492863
79.728439 1607.4496 742 4292018175
80.98349 1607.6055 743 4291558655
82.108253 1607.6055 743 4291361279
83.368805 1607.7615 744 4291426559
84.495415 1607.7615 744 4291558143
85.900917 1608.0734 746 4291427071
87.455048 1608.5413 749 4291624447
89.306419 1609.321 754 4291690495
90.886238 1609.7889 757 4292083711
91.743118 1609.4771 755 4291428351
35.550457 1608.3303 755 4284618045
36.638531 1608.1761 754 4284878929
37.662384 1607.8679 752 4284944722
38.741283 1607.7137 751 4284814910
39.752293 1607.4055 749 4285275461
40.822018 1607.2513 748 4285013566
41.820183 1606.9431 746 4285145408
42.880733 1606.7889 745 4284817236
43.937614 1606.6349 744 4284817236
44.990826 1606.4807 743 4284096593
46.040367 1606.3267 742 4284425302
47.163303 1606.3267 742 4284032079
48.20734 1606.1725 741 4284098128
49.328442 1606.1725 741 4284295521
50.449543 1606.1725 741 4284558437
51.401836 1605.8643 739 4284690268
52.433029 1605.7101 738 4284953183
53.548622 1605.7101 738 4284954196
54.57431 1605.5559 737 4286072934
55.688072 1605.5559 737 4285745529
56.801834 1605.5559 737 4285482358
57.915596 1605.5559 737 4284166263
59.029358 1605.5559 737 4285547660
60.14312 1605.5559 737 4284502418
61.256882 1605.5559 737 4285752484
62.370644 1605.5559 737 4286806719
63.484406 1605.5559 737 4287267270
64.70459 1605.7101 738 4286218705
65.820183 1605.7101 738 4288060909
66.935783 1605.7101 738 4286295039
68.051376 1605.7101 738 4290637567
69.166969 1605.7101 738 4291887103
70.28257 1605.7101 738 4291689471
71.515594 1605.8643 739 4291427839
72.633026 1605.8643 739 4291427839
73.750458 1605.8643 739 4291230207
74.867889 1605.8643 739 4291295999
76.234863 1606.1725 741 4291624703
77.355965 1606.1725 741 4291558911
78.605507 1606.3267 742 4291099391
79.858719 1606.4807 743 4291428095
80.98349 1606.4807 743 4291492863
82.242203 1606.6349 744 4291361279
83.504585 1606.7889 745 4291557375
84.495415 1606.6349 744 4291754751
85.900917 1606.9431 746 4291688959
87.596329 1607.5596 750 4291820799
89.306419 1608.1761 754 4291755519
90.451378 1608.1761 754 4291755519
91.743118 1608.3303 755 4291362559
35.664219 1607.488 757 4284617525
36.697247 1607.1835 755 4284748102
37.722935 1606.8789 753 4284879431
38.866055 1606.8789 753 4284814660
39.880733 1606.5743 751 4285603920
40.822018 1606.1174 748 4285145404
41.955963 1606.1174 748 4285079611
42.950459 1605.8129 746 4284948570
44.009174 1605.6605 745 4284619605
45.06422 1605.5083 744 4284030035
46.115597 1605.356 743 4284292950
47.240368 1605.356 743 4283834950
48.28624 1605.2036 742 4283900743
49.409176 1605.2036 742 4284162399
50.532108 1605.2036 742 4284162399
51.570641 1605.0514 741 4284292437
52.605503 1604.899 740 4284226644
53.636696 1604.7468 739 4284096591
54.754128 1604.7468 739 4286202223
55.779816 1604.5945 738 4286142322
56.895412 1604.5945 738 4286208115
58.011009 1604.5945 738 4286145695
59.126606 1604.5945 738 4287198384
60.242203 1604.5945 738 4287067590
61.3578 1604.5945 738 4286409917
62.473396 1604.5945 738 4286673082
63.588989 1604.5945 738 4287462598
64.811012 1604.7468 739 4286349264
65.928444 1604.7468 739 4288191468
67.045868 1604.7468 739 4286427391
68.1633 1604.7468 739 4291032575
69.280731 1604.7468 739 4292083711
70.398163 1604.7468 739 4291493119
71.515594 1604.7468 739 4291428351
72.752296 1604.899 740 4291362559
73.871559 1604.899 740 4291099391
74.990829 1604.899 740 4291230719
76.359634 1605.2036 742 4291559423
77.482567 1605.2036 742 4291887103
78.733948 1605.356 743 4291755519
79.988991 1605.5083 744 4291755519
81.115593 1605.5083 744 4291492863
82.376144 1605.6605 745 4291361279
83.640366 1605.8129 746 4291820031
85.045868 1606.1174 748 4292476927
86.319267 1606.2698 749 4292017663
87.878899 1606.7266 752 4291820031
89.306419 1607.0312 754 4291558399
90.596329 1607.1835 755 4291558399
91.743118 1607.1835 755 4291558655
34.623852 1606.6385 759 4284486459
35.7211 1606.488 758 4284618045
36.814678 1606.3376 757 4284747596
37.783485 1605.8862 754 4284747596
38.92844 1605.8862 754 4284880199
39.944954 1605.5853 752 4285538129
40.954128 1605.2844 750 4285145404
42.023853 1605.1339 749 4285211453
42.950459 1604.6826 746 4284490834
44.080734 1604.6826 746 4284030283
45.137615 1604.5321 745 4283832651
46.190826 1604.3816 744 4284096080
47.317432 1604.3816 744 4283899200
48.365139 1604.2312 743 4283701822
49.48991 1604.2312 743 4283832651
50.614677 1604.2312 743 4284358995
51.570641 1603.9303 741 4284815962
52.691742 1603.9303 741 4285145184
53.812843 1603.9303 741 4284295028
54.933945 1603.9303 741 4286334868
55.963303 1603.7798 740 4286405286
56.988991 1603.6294 739 4286273700
58.106422 1603.6294 739 4286014639
59.223854 1603.6294 739 4286540983
60.440369 1603.7798 740 4286607793
61.458717 1603.6294 739 4286739379
62.576145 1603.6294 739 4287130303
63.693577 1603.6294 739 4287327683
64.811012 1603.6294 739 4286610121
65.928444 1603.6294 739 4289044462
67.045868 1603.6294 739 4286429183
68.1633 1603.6294 739 4290771455
69.280731 1603.6294 739 4291690495
70.513763 1603.7798 740 4291231743
71.633026 1603.7798 740 4291297279
72.871559 1603.9303 741 4291297279
73.992661 1603.9303 741 4291099903
75.236694 1604.0807 742 4291165695
76.484406 1604.2312 743 4291362559
77.609177 1604.2312 743 4291690495
78.862389 1604.3816 744 4291821567
80.119263 1604.5321 745 4291690495
81.247704 1604.5321 745 4291689727
82.510094 1604.6826 746 4291558399
83.911926 1604.9835 748 4291689727
85.045868 1604.9835 748 4291952639
86.319267 1605.1339 749 4291821567
88.02018 1605.7358 753 4291689727
89.449539 1606.0367 755 4291558399
90.886238 1606.3376 757 4291689727
33.522934 1605.6331 760 4283896648
34.678898 1605.6331 760 4284419650
35.777981 1605.4844 759 4284353857
36.873394 1605.3358 758 4284680783
37.844036 1604.8899 755 4284549453
38.990826 1604.8899 755 4284747600
40.009174 1604.5927 753 4285471066
41.086239 1604.4441 752 4285078578
42.091743 1604.1467 750 4285144371
43.089909 1603.8495 748 4284620609
44.080734 1603.5522 746 4284357437
45.21101 1603.5522 746 4283505724
46.341286 1603.5522 746 4283703102
47.471561 1603.5522 746 4283572043
48.522934 1603.4037 745 4283901265
49.570641 1603.255 744 4284231509
50.614677 1603.1064 743 4286007920
51.739449 1603.1064 743 4286931582
52.777981 1602.9578 742 4287523975
53.900917 1602.9578 742 4287790257
55.023853 1602.9578 742 4288316601
56.055046 1602.8092 741 4287264974
57.176147 1602.8092 741 4286738629
58.297249 1602.8092 741 4286341553
59.41835 1602.8092 741 4285815208
60.539448 1602.8092 741 4286471317
61.559631 1602.6605 740 4288839865
62.678898 1602.6605 740 4288181960
63.798164 1602.6605 740 4287392444
64.917435 1602.6605 740 4285823169
66.036697 1602.6605 740 4288915441
67.15596 1602.6605 740 4287546367
68.27523 1602.6605 740 4291230719
69.394493 1602.6605 740 4292018175
70.513763 1602.6605 740 4291558911
71.633026 1602.6605 740 4291821311
72.871559 1602.8092 741 4291887103
74.113762 1602.9578 742 4291624703
75.359634 1603.1064 743 4291821567
76.609177 1603.255 744 4291624703
77.735779 1603.255 744 4291821567
78.990829 1603.4037 745 4292083711
80.249542 1603.5522 746 4292018175
81.379814 1603.5522 746 4291689727
82.777985 1603.8495 748 4291821311
84.047707 1603.9982 749 4291887103
85.321098 1604.1467 750 4291821567
86.737617 1604.4441 752 4291821567
88.161469 1604.7413 754 4291689727
89.449539 1604.8899 755 4291558655
90.886238 1605.1871 757 4292280319
33.576145 1604.6239 761 4284288577
34.733944 1604.6239 761 4284484412
35.834862 1604.4771 760 4284418619
36.93211 1604.3303 759 4284811337
38.025688 1604.1835 758 4285140559
39.115597 1604.0367 757 4285142087
40.137615 1603.7432 755 4285471309
41.152294 1603.4496 753 4285077564
42.159634 1603.156 751 4285538115
43.159634 1602.8624 749 4285014109
44.223854 1602.7156 748 4285540453
45.3578 1602.7156 748 4284690559
46.491745 1602.7156 748 4285151110
47.471561 1602.422 746 4285023367
48.601833 1602.422 746 4285220746
49.651375 1602.2753 745 4285157251
50.697247 1602.1284 744 4285683596
51.823853 1602.1284 744 4286146979
52.950459 1602.1284 744 4286870445
53.988991 1601.9817 743 4287006903
55.113762 1601.9817 743 4286743475
56.238533 1601.9817 743 4285951424
57.363304 1601.9817 743 4285425079
58.392662 1601.8348 742 4286666899
59.515594 1601.8348 742 4286535313
60.638531 1601.8348 742 4286861945
61.660549 1601.6881 741 4287848841
62.781651 1601.6881 741 4287719601
63.902752 1601.6881 741 4287785394
65.023849 1601.6881 741 4285888709
66.036697 1601.5413 740 4289704959
67.15596 1601.5413 740 4288335871
68.27523 1601.5413 740 4291428095
69.394493 1601.5413 740 4292280319
70.629356 1601.6881 741 4291755007
71.750458 1601.6881 741 4291229695
72.990829 1601.8348 742 4291492863
74.234863 1601.9817 743 4291688959
75.482567 1602.1284 744 4291820799
76.733948 1602.2753 745 4291558655
77.862389 1602.2753 745 4291821567
78.990829 1602.2753 745 4291887103
80.510094 1602.7156 748 4291887103
81.644035 1602.7156 748 4291689727
82.911926 1602.8624 749 4291887103
84.319267 1603.156 751 4292411391
85.733948 1603.4496 753 4292083711
87.01651 1603.5963 754 4291624703
88.30275 1603.7432 755 4291624703
89.735779 1604.0367 757 4291165951
90.886238 1604.0367 757 4291756031
32.623852 1604.0459 765 4284156992
33.629356 1603.611 762 4284288577
34.733944 1603.4661 761 4284418106
35.834862 1603.321 760 4284615228
36.93211 1603.1761 759 4284877380
38.025688 1603.0312 758 4285075016
39.115597 1602.8862 757 4285205832
40.137615 1602.5963 755 4285271625
41.218349 1602.4514 754 4284747596
42.227524 1602.1615 752 4286787178
43.299084 1602.0165 751 4286468734
44.366974 1601.8716 750 4288508318
45.431194 1601.7266 749 4287790284
46.566971 1601.7266 749 4288250835
47.625687 1601.5817 748 4287922636
48.759632 1601.5817 748 4287988429
49.732109 1601.2917 746 4287461821
50.779816 1601.1467 745 4287461821
51.908257 1601.1467 745 4286671789
53.036697 1601.1467 745 4286474154
54.165138 1601.1467 745 4286146979
55.203671 1601.0018 744 4286541737
56.330276 1601.0018 744 4286474158
57.363304 1600.8569 743 4285750436
58.488075 1600.8569 743 4285809024
59.612843 1600.8569 743 4285940610
60.737614 1600.8569 743 4287057260
61.761467 1600.7119 742 4287320689
62.884403 1600.7119 742 4286797463
64.007339 1600.7119 742 4288310959
65.130272 1600.7119 742 4285956041
66.144951 1600.567 741 4289837567
67.376144 1600.7119 742 4289059327
68.387154 1600.567 741 4291887103
69.508255 1600.567 741 4292476927
70.744957 1600.7119 742 4291755263
71.985321 1600.8569 743 4291427071
73.229355 1601.0018 744 4291427071
74.477066 1601.1467 745 4291492863
75.728439 1601.2917 746 4291690495
76.858719 1601.2917 746 4291821567
77.988991 1601.2917 746 4292149247
79.376144 1601.5817 748 4292345855
80.640366 1601.7266 749 4292148735
81.908257 1601.8716 750 4291689215
83.179817 1602.0165 751 4291952127
84.590828 1602.3064 753 4291821567
85.871559 1602.4514 754 4291755519
87.15596 1602.5963 755 4291624703
88.58532 1602.8862 757 4292018175
89.878899 1603.0312 758 4292083711
91.031189 1603.0312 758 4292280319
33.629356 1602.4514 762 4284484673
34.733944 1602.3082 761 4284550455
35.834862 1602.1652 760 4284550455
36.93211 1602.022 759 4285073728
38.086239 1602.022 759 4285073728
39.177982 1601.8789 758 4285270846
40.266056 1601.7358 757 4285402432
41.284405 1601.4496 755 4284486207
42.227524 1601.0201 752 4287315306
43.299084 1600.8771 751 4285224843
44.438534 1600.8771 751 4286738083
45.504585 1600.7339 750 4285627058
46.6422 1600.7339 750 4285364143
47.625687 1600.4478 748 4286019758
48.759632 1600.4478 748 4285822123
49.893578 1600.4478 748 4286279843
50.862385 1600.1615 746 4286609065
51.992661 1600.1615 746 4286145441
53.122936 1600.1615 746 4286474406
54.253212 1600.1615 746 4286734502
55.293579 1600.0183 745 4288116155
56.42202 1600.0183 745 4288510650
57.550457 1600.0183 745 4286602653
58.583485 1599.8752 744 4286527361
59.710091 1599.8752 744 4287251341
60.836697 1599.8752 744 4288303763
61.862385 1599.7321 743 4288106385
62.987156 1599.7321 743 4287255688
64.111923 1599.7321 743 4288308376
65.236694 1599.7321 743 4286284752
66.253212 1599.589 742 4290298111
67.486237 1599.7321 743 4289520895
68.611008 1599.7321 743 4291756031
69.735779 1599.7321 743 4292345855
70.976151 1599.8752 744 4291755775
72.102753 1599.8752 744 4291688959
73.467888 1600.1615 746 4291755007
74.598167 1600.1615 746 4291755519
75.974312 1600.4478 748 4291821311
77.108253 1600.4478 748 4292083711
78.368805 1600.5908 749 4292149247
79.504585 1600.5908 749 4292411391
80.900917 1600.8771 751 4292345855
82.040367 1600.8771 751 4291427071
83.447708 1601.1633 753 4291624447
84.862389 1601.4496 755 4291821567
86.009171 1601.4496 755 4291755519
87.43486 1601.7358 757 4291821567
88.726608 1601.8789 758 4291821567
89.878899 1601.8789 758 4291558655
33.629356 1601.2917 762 4283897411
34.733944 1601.1505 761 4284682555
35.834862 1601.0092 760 4284748604
36.990826 1601.0092 760 4284879166
38.086239 1600.8679 759 4284681786
39.240368 1600.8679 759 4285205302
40.330276 1600.7266 758 4285665853
41.284405 1600.3027 755 4284684355
42.363304 1600.1615 754 4287381612
43.368809 1599.8789 752 4285813119
44.438534 1599.7377 751 4285352568
45.57798 1599.7377 751 4284173175
46.6422 1599.5963 750 4283515245
47.702751 1599.4551 749 4284305027
48.838531 1599.4551 749 4284502149
49.893578 1599.3137 748 4286210957
51.027523 1599.3137 748 4286934936
52.161469 1599.3137 748 4287196065
53.295414 1599.3137 748 4288577717
54.429359 1599.3137 748 4288248505
55.383488 1599.0312 746 4288116919
56.51376 1599.0312 746 4287785394
57.644035 1599.0312 746 4286600864
58.774311 1599.0312 746 4287912615
59.904587 1599.0312 746 4289162681
60.93578 1598.8899 745 4288702896
62.06422 1598.8899 745 4287189913
63.192661 1598.8899 745 4286402189
64.216515 1598.7487 744 4287520671
65.343117 1598.7487 744 4284907728
66.469727 1598.7487 744 4289907711
67.706421 1598.8899 745 4290111999
68.834862 1598.8899 745 4292149247
69.963303 1598.8899 745 4292542463
71.207336 1599.0312 746 4292083455
72.337616 1599.0312 746 4291887103
73.706421 1599.3137 748 4292214783
74.84037 1599.3137 748 4291887103
76.097244 1599.4551 749 4291887103
77.357796 1599.5963 750 4291887103
78.622017 1599.7377 751 4291887103
79.761467 1599.7377 751 4292083455
81.031189 1599.8789 752 4292280319
82.304588 1600.0201 753 4291689727
83.715599 1600.3027 755 4291755519
84.862389 1600.3027 755 4291821567
86.284401 1600.5853 757 4291821567
87.57431 1600.7266 758 4291821567
88.867889 1600.8679 759 4291821567
90.165138 1601.0092 760 4291821567
32.675228 1600.6899 766 4284095296
33.78899 1600.5504 765 4284029503
34.78899 1600.1321 762 4284618045
35.891743 1599.9927 761 4284420665
37.049541 1599.9927 761 4285010756
38.20734 1599.9927 761 4285010756
39.302753 1599.8533 760 4285141311
40.330276 1599.5743 758 4285470276
41.416515 1599.4348 757 4284750149
42.431194 1599.156 755 4287052903
43.508255 1599.0165 754 4285548155
44.51009 1598.7377 752 4286271621
45.651375 1598.7377 752 4286140313
46.71743 1598.5981 751 4286008726
47.779816 1598.4587 750 4286929565
48.917431 1598.4587 750 4286929565
49.974312 1598.3192 749 4287193227
51.110092 1598.3192 749 4287259020
52.245872 1598.3192 749 4287194763
53.295414 1598.1798 748 4287721107
54.429359 1598.1798 748 4288182449
55.563301 1598.1798 748 4287919276
56.697247 1598.1798 748 4286798751
57.831192 1598.1798 748 4287193253
58.965137 1598.1798 748 4287980985
59.904587 1597.9009 746 4288441536
61.034863 1597.9009 746 4288439989
62.165138 1597.9009 746 4287189923
63.295414 1597.9009 746 4286205567
64.42569 1597.9009 746 4287653013
65.555962 1597.9009 746 4284316885
66.686241 1597.9009 746 4289777663
67.816513 1597.9009 746 4290702591
69.170639 1598.1798 748 4291952639
70.304588 1598.1798 748 4291887103
71.43853 1598.1798 748 4291887103
72.689911 1598.3192 749 4291887103
73.825691 1598.3192 749 4292018175
74.961472 1598.3192 749 4291821567
76.220184 1598.4587 750 4291887103
77.482567 1598.5981 751 4292083711
78.748627 1598.7377 752 4292083711
79.889908 1598.7377 752 4291230975
81.161469 1598.8771 753 4291428351
82.436699 1599.0165 754 4291624703
83.98349 1599.4348 757 4291690495
85.133942 1599.4348 757 4291821567
86.42202 1599.5743 758 4291821567
87.85321 1599.8533 760 4291755519
89.009171 1599.8533 760 4291821567
90.165138 1599.8533 760 4292083711
31.805504 1600.3486 772 4283898698
32.880733 1600.0734 770 4284421697
33.948624 1599.7982 768 4284421697
35.009174 1599.5229 766 4284682036
35.948624 1598.9725 762 4284813623
37.049541 1598.8348 761 4285011269
38.14679 1598.6973 760 4285142856
39.365139 1598.8348 761 4285338185
40.458717 1598.6973 760 4285535565
41.416515 1598.2844 757 4284816457
42.431194 1598.0092 755 4286856040
43.57798 1598.0092 755 4285548416
44.65321 1597.8716 754 4287982757
45.798164 1597.8716 754 4287918792
46.79266 1597.5963 752 4287984586
47.85688 1597.4587 751 4287589307
48.99633 1597.4587 751 4287062963
50.13578 1597.4587 751 4286470533
51.192661 1597.321 750 4284497000
52.245872 1597.1835 749 4285680238
53.381653 1597.1835 749 4286864512
54.517429 1597.1835 749 4287788458
55.65321 1597.1835 749 4288380595
56.78899 1597.1835 749 4288315054
57.92477 1597.1835 749 4288775605
59.060551 1597.1835 749 4289233865
60.099083 1597.0459 748 4287918261
61.233028 1597.0459 748 4288177070
62.366974 1597.0459 748 4287058588
63.500916 1597.0459 748 4285812615
64.634865 1597.0459 748 4288641970
65.768806 1597.0459 748 4284976876
66.902756 1597.0459 748 4289911551
68.036697 1597.0459 748 4291622399
69.28257 1597.1835 749 4292214271
70.41835 1597.1835 749 4292345855
71.554131 1597.1835 749 4292411391
72.807343 1597.321 750 4292149247
73.944954 1597.321 750 4292214783
75.082565 1597.321 750 4291887103
76.343117 1597.4587 751 4291887103
77.607338 1597.5963 752 4292018175
78.748627 1597.5963 752 4292083711
80.018349 1597.7339 753 4291755519
81.161469 1597.7339 753 4291821311
82.436699 1597.8716 754 4291821567
83.98349 1598.2844 757 4291755519
85.133942 1598.2844 757 4291755519
86.69725 1598.6973 760 4291755519
87.992661 1598.8348 761 4291755519
89.009171 1598.6973 760 4291755519
90.308258 1598.8348 761 4291887103
31.904587 1599.4421 774 4284226887
32.983486 1599.1707 772 4284488003
34.108257 1599.0349 771 4284422210
35.229359 1598.899 770 4284552502
36.176147 1598.356 766 4284618551
37.108257 1597.8129 762 4285142085
38.20734 1597.677 761 4285010756
39.365139 1597.677 761 4285470535
40.458717 1597.5413 760 4285339206
41.482571 1597.2698 758 4284947793
42.566971 1597.1339 757 4286855790
43.71743 1597.1339 757 4285352057
44.72477 1596.8624 755 4287260054
45.798164 1596.7266 754 4286935477
46.867889 1596.5908 753 4286738098
47.933945 1596.4551 752 4287064760
49.07523 1596.4551 752 4286801588
50.216515 1596.4551 752 4286667422
51.27523 1596.3192 751 4286272664
52.330276 1596.1835 750 4286075523
53.381653 1596.0477 749 4287128211
54.517429 1596.0477 749 4288181697
55.65321 1596.0477 749 4288576454
56.78899 1596.0477 749 4287792053
57.92477 1596.0477 749 4288121019
59.060551 1596.0477 749 4289169359
60.196331 1596.0477 749 4287721913
61.332111 1596.0477 749 4288112290
62.568806 1596.1835 750 4287323030
63.603668 1596.0477 749 4285946265
64.739449 1596.0477 749 4288051642
65.875229 1596.0477 749 4284454884
67.011009 1596.0477 749 4289586687
68.14679 1596.0477 749 4291557119
69.394493 1596.1835 750 4292214783
70.532112 1596.1835 750 4292345855
71.669724 1596.1835 750 4292280319
72.924774 1596.3192 751 4291428351
73.944954 1596.1835 750 4291690495
75.203667 1596.3192 751 4291558655
76.343117 1596.3192 751 4291558655
77.607338 1596.4551 752 4291688959
78.875229 1596.5908 753 4292017919
80.14679 1596.7266 754 4291755519
81.42202 1596.8624 755 4291887103
82.833031 1597.1339 757 4292018175
84.251373 1597.4055 759 4291952383
85.269722 1597.2698 758 4291099391
86.69725 1597.5413 760 4291362303
88.132111 1597.8129 762 4291755519
89.150459 1597.677 761 4291821311
30.818348 1598.5284 776 4283236390
31.904587 1598.2605 774 4283301927
33.034863 1598.1266 773 4283301927
34.161469 1597.9927 772 4283564075
35.284405 1597.8588 771 4283695145
36.289909 1597.4569 768 4283826220
37.343121 1597.189 766 4283957298
38.267891 1596.6532 762 4284022835
39.427525 1596.6532 762 4284284982
40.458717 1596.3854 760 4285073219
41.548622 1596.2513 759 4284618069
42.634861 1596.1174 758 4286591860
43.71743 1595.9835 757 4284956525
44.867889 1595.9835 757 4285680504
45.871559 1595.7156 755 4286736540
46.943119 1595.5817 754 4286736540
48.088074 1595.5817 754 4287657642
49.154129 1595.4478 753 4288578744
50.297249 1595.4478 753 4288446404
51.3578 1595.3137 752 4288314561
52.41468 1595.1798 751 4288116919
53.467892 1595.0459 750 4288774849
54.605503 1595.0459 750 4289103830
55.743118 1595.0459 750 4288972244
56.880733 1595.0459 750 4288643253
58.018349 1595.0459 750 4288379825
59.155964 1595.0459 750 4288243113
60.293579 1595.0459 750 4286532494
61.431194 1595.0459 750 4286531468
62.568806 1595.0459 750 4289031345
63.706421 1595.0459 750 4287200443
64.84404 1595.0459 750 4287332030
65.981651 1595.0459 750 4283667417
67.119263 1595.0459 750 4289522943
68.256882 1595.0459 750 4291952127
69.506424 1595.1798 751 4292411391
70.645874 1595.1798 751 4292280319
71.785324 1595.1798 751 4292149247
72.924774 1595.1798 751 4291952639
74.064217 1595.1798 751 4292280319
75.324768 1595.3137 752 4292280319
76.466057 1595.3137 752 4292411391
77.732109 1595.4478 753 4291821567
79.128441 1595.7156 755 4292149247
80.27523 1595.7156 755 4291821567
81.682571 1595.9835 757 4291821567
82.965141 1596.1174 758 4291887103
84.385323 1596.3854 760 4291821567
85.541283 1596.3854 760 4292018175
86.972481 1596.6532 762 4292280319
88.411011 1596.9211 764 4292411391
29.633028 1597.3431 776 4283105628
30.818348 1597.3431 776 4283760726
31.904587 1597.0789 774 4283957337
33.034863 1596.9468 773 4283826261
34.108257 1596.6826 771 4284153945
35.284405 1596.6826 771 4284154707
36.403671 1596.5504 770 4284088914
37.401836 1596.1542 767 4284154455
38.449543 1595.8899 765 4284746848
39.552292 1595.7578 764 4285076865
40.522934 1595.3615 761 4284813693
41.614677 1595.2294 760 4284423523
42.702751 1595.0973 759 4286002555
43.85688 1595.0973 759 4285154162
44.939449 1594.9651 758 4286996366
46.018349 1594.833 757 4287263156
47.018349 1594.5688 755 4287066034
48.165138 1594.5688 755 4287394997
49.233028 1594.4366 754 4287460790
50.377983 1594.4366 754 4286738098
51.440369 1594.3046 753 4287264442
52.499084 1594.1725 752 4287526583
53.554127 1594.0404 751 4288250306
54.693577 1594.0404 751 4288841411
55.833027 1594.0404 751 4288380860
56.972477 1594.0404 751 4287588755
58.111927 1594.0404 751 4286667653
59.251377 1594.0404 751 4286989196
60.390827 1594.0404 751 4287449747
61.530273 1594.0404 751 4286730389
62.669724 1594.0404 751 4287980457
63.809174 1594.0404 751 4287200693
64.948624 1594.0404 751 4287266487
66.088074 1594.0404 751 4283471332
67.227524 1594.0404 751 4289590015
68.366974 1594.0404 751 4291887103
69.506424 1594.0404 751 4292149247
70.645874 1594.0404 751 4291887103
71.900917 1594.1725 752 4291821567
73.042198 1594.1725 752 4291362559
74.183487 1594.1725 752 4291756031
75.324768 1594.1725 752 4291755519
76.588989 1594.3046 753 4291887103
77.85688 1594.4366 754 4291689215
79.128441 1594.5688 755 4291820799
80.532112 1594.833 757 4291821567
81.812843 1594.9651 758 4291887103
83.229355 1595.2294 760 4291887103
84.519264 1595.3615 761 4291887103
85.677063 1595.3615 761 4292214783
87.247704 1595.7578 764 4292280319
88.411011 1595.7578 764 4292083711
31.904587 1595.8972 774 4287201729
32.983486 1595.6367 772 4287201727
34.108257 1595.5065 771 4287201727
35.284405 1595.5065 771 4287070909
36.289909 1595.1156 768 4287136958
37.401836 1594.9854 767 4287662530
38.51009 1594.8551 766 4288320460
39.614677 1594.7247 765 4289303505
40.715595 1594.5945 764 4287000750
41.746788 1594.334 762 4286601856
42.838531 1594.2036 761 4284957030
43.926605 1594.0734 760 4284630157
45.011009 1593.9431 759 4287853758
46.091743 1593.8129 758 4287920839
47.168808 1593.6826 757 4287394495
48.319267 1593.6826 757 4286998701
49.311928 1593.422 755 4286538150
50.458717 1593.422 755 4286867091
51.522934 1593.2917 754 4287525020
52.667889 1593.2917 754 4287918520
53.726604 1593.1615 753 4287589811
54.781651 1593.0312 752 4286665112
55.922935 1593.0312 752 4285283459
57.06422 1593.0312 752 4285673310
58.205505 1593.0312 752 4285804897
59.251377 1592.9009 751 4286924159
60.390827 1592.9009 751 4288897949
61.530273 1592.9009 751 4288179130
62.669724 1592.9009 751 4287455407
63.809174 1592.9009 751 4285162673
64.948624 1592.9009 751 4286741962
66.088074 1592.9009 751 4284522489
67.227524 1592.9009 751 4290180607
68.477066 1593.0312 752 4292804607
69.618347 1593.0312 752 4292607999
70.759636 1593.0312 752 4292214783
71.900917 1593.0312 752 4292149247
73.042198 1593.0312 752 4292083711
74.183487 1593.0312 752 4292476927
75.445869 1593.1615 753 4292345855
76.711929 1593.2917 754 4292607999
77.981651 1593.422 755 4292083711
79.381653 1593.6826 757 4291952383
80.660553 1593.8129 758 4291952639
81.943123 1593.9431 759 4292018175
83.361465 1594.2036 761 4292018175
84.519264 1594.2036 761 4292149247
86.084404 1594.5945 764 4291887103
87.385323 1594.7247 765 4291821567
88.689911 1594.8551 766 4292083455
30.961468 1595.3578 779 4285568220
32.00367 1594.9725 776 4286028771
32.983486 1594.4587 772 4285898720
34.108257 1594.3303 771 4286227429
35.284405 1594.3303 771 4285965545
36.403671 1594.2018 770 4286294510
37.460552 1593.9449 768 4286491373
38.51009 1593.6881 766 4287149303
39.614677 1593.5596 765 4289244927
40.779816 1593.5596 765 4286021081
41.878899 1593.4312 764 4286142350
42.838531 1593.0459 761 4284563317
43.926605 1592.9175 760 4284365191
45.011009 1592.7889 759 4286930862
46.165138 1592.7889 759 4286736301
47.244038 1592.6605 758 4286867887
48.319267 1592.5321 757 4286997418
49.469727 1592.5321 757 4287063211
50.620182 1592.5321 757 4287589800
51.605503 1592.2753 755 4287195042
52.752293 1592.2753 755 4287192471
53.812843 1592.1467 754 4287060885
54.957798 1592.1467 754 4287057030
56.012844 1592.0183 753 4286135928
57.155964 1592.0183 753 4286656621
58.205505 1591.8899 752 4287380601
59.34679 1591.8899 752 4287974800
60.488075 1591.8899 752 4289356453
61.629356 1591.8899 752 4288378798
62.770641 1591.8899 752 4286667924
63.911926 1591.8899 752 4284044960
65.053207 1591.8899 752 4286742473
66.194496 1591.8899 752 4285901567
67.335777 1591.8899 752 4290967551
68.477066 1591.8899 752 4292542463
69.618347 1591.8899 752 4292280319
70.873398 1592.0183 753 4291887103
72.01651 1592.0183 753 4291887103
73.15963 1592.0183 753 4291821567
74.30275 1592.0183 753 4292018175
75.566971 1592.1467 754 4291887103
76.834862 1592.2753 755 4292018175
78.231194 1592.5321 757 4292018175
79.508255 1592.6605 758 4291952639
80.788994 1592.7889 759 4291952639
82.073395 1592.9175 760 4291952639
83.493576 1593.1743 762 4291624959
84.653214 1593.1743 762 4291559423
86.220184 1593.5596 765 4291297279
87.522934 1593.6881 766 4291493887
88.689911 1593.6881 766 4292083455
29.816513 1594.2936 780 4286619888
30.961468 1594.167 779 4286357232
32.053211 1593.9138 777 4286554867
32.983486 1593.2808 772 4286096878
34.161469 1593.2808 772 4286820602
35.284405 1593.1542 771 4286886399
36.403671 1593.0275 770 4287083775
37.460552 1592.7743 768 4287084031
38.570641 1592.6477 767 4287939327
39.677063 1592.5211 766 4289443327
40.779816 1592.3945 765 4285824733
41.878899 1592.2679 764 4284762246
42.906422 1592.0146 762 4284170108
43.99633 1591.8881 761 4284696228
45.082569 1591.7615 760 4286472639
46.238533 1591.7615 760 4286933651
47.319267 1591.6349 759 4286999444
48.396332 1591.5083 758 4287128997
49.548622 1591.5083 758 4287194790
50.620182 1591.3816 757 4286335407
51.770641 1591.3816 757 4284625045
52.752293 1591.1284 755 4285540205
53.899082 1591.1284 755 4288106389
55.045872 1591.1284 755 4288176275
56.102753 1591.0018 754 4288373653
57.247707 1591.0018 754 4288244128
58.299084 1590.8752 753 4288441763
59.442204 1590.8752 753 4287060381
60.58532 1590.8752 753 4286599830
61.629356 1590.7487 752 4286075792
62.770641 1590.7487 752 4286470549
64.014679 1590.8752 753 4283587504
65.157799 1590.8752 753 4286877154
66.300919 1590.8752 753 4286298111
67.444038 1590.8752 753 4291297279
68.587158 1590.8752 753 4292870143
69.730278 1590.8752 753 4292542463
70.98716 1591.0018 754 4292280319
72.132111 1591.0018 754 4292214783
73.394493 1591.1284 755 4292149247
74.541283 1591.1284 755 4292149247
75.688072 1591.1284 755 4291952383
77.080734 1591.3816 757 4292083711
78.355965 1591.5083 758 4292149247
79.634865 1591.6349 759 4292083711
80.917435 1591.7615 760 4291952639
82.333946 1592.0146 762 4292018175
83.757797 1592.2679 764 4291952639
84.921104 1592.2679 764 4291887103
86.220184 1592.3945 765 4291952639
87.522934 1592.5211 766 4292280319
88.689911 1592.5211 766 4292476927
29.770641 1592.9762 779 4285767900
30.913761 1592.8513 778 4285374954
32.053211 1592.7266 777 4285440747
33.086239 1592.3523 774 4284720104
34.161469 1592.1028 772 4285640950
35.284405 1591.978 771 4285641215
36.403671 1591.8533 770 4285838335
37.57798 1591.8533 770 4285772031
38.631191 1591.6036 768 4286561535
39.739449 1591.4789 767 4289116415
40.844036 1591.3541 766 4284905681
41.944954 1591.2294 765 4284303743
43.042202 1591.1046 764 4285093003
44.066055 1590.8551 762 4286668957
45.154129 1590.7302 761 4287524266
46.311928 1590.7302 761 4287264162
47.394497 1590.6055 760 4285882509
48.473396 1590.4807 759 4286534529
49.548622 1590.356 758 4286666116
50.700916 1590.356 758 4286331536
51.770641 1590.2312 757 4285739142
52.921101 1590.2312 757 4286395251
54.07156 1590.2312 757 4289553314
55.045872 1589.9817 755 4288772010
56.192661 1589.9817 755 4288048030
57.247707 1589.8569 754 4287590302
58.392662 1589.8569 754 4287392666
59.537613 1589.8569 754 4285946515
60.682568 1589.8569 754 4285485964
61.728439 1589.7321 753 4285025404
62.871559 1589.7321 753 4286143885
64.117432 1589.8569 754 4283326645
65.262383 1589.8569 754 4286813674
66.407341 1589.8569 754 4287283711
67.552292 1589.8569 754 4291624959
68.69725 1589.8569 754 4292607999
69.842201 1589.8569 754 4292411391
71.100914 1589.9817 755 4292280319
72.247704 1589.9817 755 4292214783
73.394493 1589.9817 755 4292214783
74.541283 1589.9817 755 4292214783
75.930275 1590.2312 757 4292083711
77.203667 1590.356 758 4292149247
78.480736 1590.4807 759 4292280319
79.888077 1590.7302 761 4292280319
81.43119 1591.1046 764 4292083711
82.594498 1591.1046 764 4292214783
83.889908 1591.2294 765 4292214783
85.055046 1591.2294 765 4292149247
86.355965 1591.3541 766 4291952639
87.522934 1591.3541 766 4292149247
88.689911 1591.3541 766 4292280319
32.00367 1591.4165 776 4287538137
33.086239 1591.1707 774 4286621414
34.21468 1591.0477 773 4287739639
35.284405 1590.8019 771 4287281151
36.403671 1590.679 770 4287412735
37.57798 1590.679 770 4287282687
38.631191 1590.433 768 4287677439
39.801834 1590.433 768 4289904127
40.908257 1590.3101 767 4285101257
42.011009 1590.1871 766 4284564610
43.177982 1590.1871 766 4285617554
44.27523 1590.0642 765 4286669711
45.368809 1589.9413 764 4287590813
46.385323 1589.6954 762 4287328148
47.469727 1589.5725 761 4284367206
48.550457 1589.4496 760 4286075230
49.627522 1589.3267 759 4286996332
50.781651 1589.3267 759 4287256733
51.85321 1589.2036 758 4287783077
53.005505 1589.2036 758 4288177320
54.07156 1589.0807 757 4289098422
55.222019 1589.0807 757 4288510366
56.192661 1588.8348 755 4286339454
57.339451 1588.8348 755 4284692866
58.48624 1588.8348 755 4284627073
59.633026 1588.8348 755 4284891013
60.779816 1588.8348 755 4286009751
61.926605 1588.8348 755 4285551494
63.073395 1588.8348 755 4286472596
64.220184 1588.8348 755 4283327417
65.366974 1588.8348 755 4287866878
66.513763 1588.8348 755 4287154175
67.660553 1588.8348 755 4291756031
68.807343 1588.8348 755 4293197823
69.954132 1588.8348 755 4292739071
71.100914 1588.8348 755 4292542463
72.478897 1589.0807 757 4292280319
73.629356 1589.0807 757 4292149247
74.779816 1589.0807 757 4292476927
76.051376 1589.2036 758 4292542463
77.326607 1589.3267 759 4292542463
78.730278 1589.5725 761 4292214783
80.267891 1589.9413 764 4292542463
81.43119 1589.9413 764 4292542463
82.72477 1590.0642 765 4292607999
83.889908 1590.0642 765 4292214783
85.055046 1590.0642 765 4292149247
86.220184 1590.0642 765 4292214783
87.385323 1590.0642 765 4292476927
88.550461 1590.0642 765 4292280319
32.00367 1590.2312 776 4286088893
33.086239 1589.989 774 4284845505
34.21468 1589.8679 773 4286884832
35.339451 1589.7468 772 4286362090
36.460552 1589.6257 771 4286690799
37.57798 1589.5046 770 4287807230
38.752293 1589.5046 770 4288004607
39.801834 1589.2623 768 4289968383
40.908257 1589.1412 767 4284573112
42.077065 1589.1412 767 4283839315
43.177982 1589.0201 766 4286010484
44.27523 1588.899 765 4286142611
45.368809 1588.778 764 4286800798
46.385323 1588.5358 762 4286735004
47.544952 1588.5358 762 4285813902
48.627522 1588.4147 761 4287061639
49.706421 1588.2936 760 4286864260
50.862385 1588.2936 760 4286600084
51.93578 1588.1725 759 4287126428
53.089909 1588.1725 759 4287392916
54.157799 1588.0514 758 4288314018
55.310093 1588.0514 758 4287986087
56.372478 1587.9303 757 4284104300
57.522934 1587.9303 757 4284623198
58.673393 1587.9303 757 4285347178
59.823853 1587.9303 757 4284957047
60.974312 1587.9303 757 4286009478
62.124771 1587.9303 757 4285485703
63.27523 1587.9303 757 4286341012
64.42569 1587.9303 757 4282999479
65.576149 1587.9303 757 4289118207
66.726608 1587.9303 757 4288995583
67.877068 1587.9303 757 4291887103
69.027519 1587.9303 757 4292542463
70.177979 1587.9303 757 4292280319
71.328438 1587.9303 757 4292542463
72.594498 1588.0514 758 4292280319
73.746788 1588.0514 758 4291952639
75.018349 1588.1725 759 4292280319
76.293579 1588.2936 760 4291821567
77.572479 1588.4147 761 4291690495
78.855049 1588.5358 762 4291035135
80.267891 1588.778 764 4291821567
81.43119 1588.778 764 4292542463
82.72477 1588.899 765 4292476927
83.889908 1588.899 765 4292214783
85.055046 1588.899 765 4292280319
86.220184 1588.899 765 4292280319
87.385323 1588.899 765 4292476927
30.866055 1589.1652 777 4281409349
32.053211 1589.1652 777 4281672778
33.188992 1589.0459 776 4281545577
34.267891 1588.8074 774 4282203508
35.339451 1588.5688 772 4282143861
36.460552 1588.4496 771 4283328135
37.636696 1588.4496 771 4284380350
38.752293 1588.3303 770 4286222554
39.926605 1588.3303 770 4288122299
40.972477 1588.0918 768 4284174720
42.14312 1588.0918 768 4284693536
43.245872 1587.9725 767 4286667583
44.41468 1587.9725 767 4286733719
45.511925 1587.8533 766 4287194270
46.605503 1587.7339 765 4286997911
47.695412 1587.6146 764 4286208395
48.704586 1587.3761 762 4286074256
49.78532 1587.2568 761 4285153154
50.943119 1587.2568 761 4284824177
52.018349 1587.1376 760 4284429419
53.174313 1587.1376 760 4286601567
54.330276 1587.1376 760 4288838273
55.398167 1587.0183 759 4288575369
56.552292 1587.0183 759 4284759375
57.614677 1586.899 758 4284626532
58.86055 1587.0183 759 4285679221
60.014679 1587.0183 759 4285483652
61.168808 1587.0183 759 4285615495
62.223854 1586.899 758 4285747846
63.376148 1586.899 758 4286405519
64.528442 1586.899 758 4282935480
65.680733 1586.899 758 4289251839
66.833031 1586.899 758 4290045695
67.985321 1586.899 758 4292476927
69.137611 1586.899 758 4292870143
70.289909 1586.899 758 4292476927
71.4422 1586.899 758 4292542463
72.710091 1587.0183 759 4292673535
73.981651 1587.1376 760 4292411391
75.256882 1587.2568 761 4292607999
76.535782 1587.3761 762 4292607999
77.941284 1587.6146 764 4292673535
79.104584 1587.6146 764 4292083711
80.394493 1587.7339 765 4292476927
81.559631 1587.7339 765 4292607999
82.855049 1587.8533 766 4292542463
84.022018 1587.8533 766 4292739071
85.055046 1587.7339 765 4293132287
86.220184 1587.7339 765 4293066751
87.385323 1587.7339 765 4293066751
30.229359 1589.3872 789 4283768630
32.053211 1587.978 777 4283633212
33.188992 1587.8606 776 4283699005
34.374313 1587.8606 776 4283699005
35.394497 1587.5083 773 4284620357
36.57431 1587.5083 773 4284686150
37.695412 1587.3909 772 4284691822
38.812843 1587.2734 771 4285152373
39.926605 1587.156 770 4286796950
40.972477 1586.9211 768 4284823160
42.14312 1586.9211 768 4284226071
43.313763 1586.9211 768 4286002482
44.41468 1586.8037 767 4286073213
45.583485 1586.8037 767 4285941627
46.678898 1586.6863 766 4285417596
47.770641 1586.5688 765 4285088630
48.858715 1586.4514 764 4284561519
49.86422 1586.2166 762 4283640417
51.023853 1586.2166 762 4283703382
52.100918 1586.0991 761 4284690277
53.258717 1586.0991 761 4285549933
54.330276 1585.9817 760 4288115861
55.48624 1585.9817 760 4287128463
56.6422 1585.9817 760 4284957551
57.706421 1585.8643 759 4285283431
58.954128 1585.9817 760 4285941362
60.110092 1585.9817 760 4286008706
61.266056 1585.9817 760 4286008706
62.42202 1585.9817 760 4286010248
63.57798 1585.9817 760 4286733971
64.733948 1585.9817 760 4283919816
65.889908 1585.9817 760 4289972735
67.045868 1585.9817 760 4291031295
68.093575 1585.8643 759 4292673535
69.247704 1585.8643 759 4292607999
70.401833 1585.8643 759 4292280319
71.555962 1585.8643 759 4292280319
72.941284 1586.0991 761 4292607999
74.451378 1586.4514 764 4292280319
75.733948 1586.5688 765 4292411391
76.899086 1586.5688 765 4292804607
78.187157 1586.6863 766 4292804607
79.354126 1586.6863 766 4292083711
80.521103 1586.6863 766 4292476927
81.688072 1586.6863 766 4292607999
82.985321 1586.8037 767 4292607999
84.154129 1586.8037 767 4292804607
85.322937 1586.8037 767 4293001215
86.491745 1586.8037 767 4292345855
30.229359 1588.178 789 4284097595
31.438532 1588.178 789 4284227396
32.598164 1588.0624 788 4283832638
33.188992 1586.6753 776 4284357419
34.693577 1587.3688 782 4284423212
35.72477 1587.022 779 4284356656
36.744953 1586.6753 776 4283961898
37.812843 1586.4441 774 4283831606
38.873394 1586.2129 772 4284226364
39.988991 1586.0973 771 4284227646
41.100918 1585.9817 770 4284293695
42.27523 1585.9817 770 4284554816
43.449543 1585.9817 770 4284752195
44.484406 1585.7505 768 4283965525
45.583485 1585.6349 767 4283702096
46.752293 1585.6349 767 4283440462
47.845871 1585.5193 766 4283440462
48.93578 1585.4037 765 4283966038
50.100918 1585.4037 765 4284558175
51.185322 1585.2881 764 4284099421
52.183487 1585.0569 762 4284954730
53.258717 1584.9413 761 4286271362
54.416515 1584.9413 761 4288442275
55.48624 1584.8257 760 4287585921
56.6422 1584.8257 760 4286006889
57.798164 1584.8257 760 4285481841
58.954128 1584.8257 760 4285942136
60.110092 1584.8257 760 4285943424
61.363304 1584.9413 761 4286140803
62.521099 1584.9413 761 4285814152
63.678898 1584.9413 761 4287656356
64.8367 1584.9413 761 4283595221
65.994499 1584.9413 761 4289648127
67.15229 1584.9413 761 4292345855
68.310089 1584.9413 761 4293591039
69.467888 1584.9413 761 4293328895
70.625687 1584.9413 761 4293001215
71.783485 1584.9413 761 4292804607
73.056877 1585.0569 762 4293132287
74.451378 1585.2881 764 4292476927
75.733948 1585.4037 765 4292345855
77.02018 1585.5193 766 4292542463
78.187157 1585.5193 766 4292739071
79.478897 1585.6349 767 4292280319
80.647705 1585.6349 767 4292476927
81.816513 1585.6349 767 4292739071
83.376144 1585.9817 770 4292476927
84.550461 1585.9817 770 4292476927
86.662384 1586.7908 777 4292739071
87.849541 1586.7908 777 4292345855
31.533945 1587.1963 791 4284227400
32.647705 1586.9688 789 4284161351
33.754128 1586.7413 787 4284751414
34.799999 1586.4 784 4284883000
35.779816 1585.9449 780 4284882750
36.801834 1585.6036 777 4284948543
37.930275 1585.4899 776 4285275461
38.873394 1585.0349 772 4285341254
39.988991 1584.9211 771 4285144902
41.165138 1584.9211 771 4285210951
42.341286 1584.9211 771 4284950090
43.449543 1584.8074 770 4284950090
44.484406 1584.5798 768 4284097876
45.655045 1584.5798 768 4283703119
46.752293 1584.4661 767 4283900241
47.845871 1584.3523 766 4284032083
48.93578 1584.2385 765 4284556631
50.100918 1584.2385 765 4285543526
51.266056 1584.2385 765 4285085789
52.348625 1584.1248 764 4285480290
53.343121 1583.8972 762 4286729342
54.416515 1583.7834 761 4287584651
55.57431 1583.7834 761 4287190397
56.732109 1583.7834 761 4285940330
57.889908 1583.7834 761 4285678959
59.047707 1583.7834 761 4285613166
60.205505 1583.7834 761 4285221498
61.460552 1583.8972 762 4285748098
62.620182 1583.8972 762 4285683600
63.779816 1583.8972 762 4287328168
64.939453 1583.8972 762 4283662816
66.099083 1583.8972 762 4289978879
67.258713 1583.8972 762 4292149247
68.310089 1583.7834 761 4293066751
69.57798 1583.8972 762 4292870143
70.625687 1583.7834 761 4292739071
71.897247 1583.8972 762 4292542463
73.288071 1584.1248 764 4292804607
74.451378 1584.1248 764 4292804607
75.733948 1584.2385 765 4292673535
77.02018 1584.3523 766 4292673535
78.310089 1584.4661 767 4292804607
79.603668 1584.5798 768 4292476927
80.774315 1584.5798 768 4292739071
82.201836 1584.8074 770 4292673535
83.766975 1585.1487 773 4292476927
85.078896 1585.2623 774 4292149247
86.662384 1585.6036 777 4292345855
87.849541 1585.6036 777 4292149247
31.533945 1585.9835 791 4284227400
32.647705 1585.7596 789 4284293193
33.754128 1585.5358 787 4284489272
34.85321 1585.3119 785 4284555066
35.889908 1584.9762 782 4284750149
36.915596 1584.6404 779 4285144906
38.047707 1584.5284 778 4285210697
38.933945 1583.9688 773 4285276491
40.051376 1583.8569 772 4285276493
41.165138 1583.745 771 4285407822
42.341286 1583.745 771 4285015381
43.517429 1583.745 771 4285015381
44.623852 1583.6331 770 4284296023
45.798164 1583.6331 770 4284164181
46.825687 1583.4092 768 4284229465
47.921101 1583.2972 767 4284360794
49.012844 1583.1853 766 4284622426
50.179817 1583.1853 766 4285477479
51.266056 1583.0734 765 4285020245
52.348625 1582.9614 764 4286204520
53.511925 1582.9614 764 4286205565
54.50275 1582.7377 762 4286929287
55.662384 1582.7377 762 4286862699
56.822018 1582.7377 762 4285546840
57.981651 1582.7377 762 4285350008
59.141285 1582.7377 762 4285810559
60.300919 1582.7377 762 4285418361
61.655045 1582.9614 764 4286273670
62.818348 1582.9614 764 4285356947
63.981651 1582.9614 764 4286804393
65.144951 1582.9614 764 4283731438
66.308258 1582.9614 764 4290113279
67.471558 1582.9614 764 4293263359
68.634865 1582.9614 764 4293459967
69.798164 1582.9614 764 4293066751
70.961472 1582.9614 764 4292935679
72.238533 1583.0734 765 4292739071
73.519264 1583.1853 766 4292739071
74.686241 1583.1853 766 4292935679
75.972481 1583.2972 767 4293001215
77.262383 1583.4092 768 4292804607
78.678902 1583.6331 770 4292673535
79.977982 1583.745 771 4292476927
81.027519 1583.6331 770 4292739071
82.587158 1583.9688 773 4292739071
83.897247 1584.0807 774 4292739071
85.343117 1584.3046 776 4292411391
86.662384 1584.4165 777 4292411391
87.849541 1584.4165 777 4292476927
31.438532 1584.5504 789 4284030798
32.598164 1584.4404 788 4284294226
33.754128 1584.3303 787 4284752195
34.799999 1584 784 4284686402
35.944954 1583.8899 783 4284948293
36.915596 1583.4496 779 4285145415
38.106422 1583.4496 779 4285080397
39.115597 1583.1193 776 4285080397
40.113762 1582.7889 773 4285146188
41.229359 1582.679 772 4285277517
42.407341 1582.679 772 4284755279
43.517429 1582.5688 771 4284755279
44.693577 1582.5688 771 4284361816
45.798164 1582.4587 770 4284230230
46.972477 1582.4587 770 4284426326
47.99633 1582.2385 768 4284360533
49.089909 1582.1284 767 4284949340
50.258717 1582.1284 767 4285804649
51.34679 1582.0183 766 4285019744
52.431194 1581.9082 765 4286269811
53.596329 1581.9082 765 4286008954
54.675228 1581.7982 764 4286140283
55.838531 1581.7982 764 4286074226
57.001835 1581.7982 764 4285087331
58.165138 1581.7982 764 4285348975
59.328442 1581.7982 764 4286138234
60.491745 1581.7982 764 4285681015
61.655045 1581.7982 764 4286470531
62.818348 1581.7982 764 4285160597
63.981651 1581.7982 764 4286608043
65.247704 1581.9082 765 4284717049
66.412842 1581.9082 765 4290769919
67.57798 1581.9082 765 4293263359
68.743118 1581.9082 765 4293394431
69.908257 1581.9082 765 4292607999
71.185318 1582.0183 766 4292739071
72.466057 1582.1284 767 4292739071
73.750458 1582.2385 768 4292739071
74.921104 1582.2385 768 4292673535
76.091743 1582.2385 768 4292673535
77.504585 1582.4587 770 4292607999
78.924774 1582.679 772 4292542463
80.102753 1582.679 772 4292214783
81.280731 1582.679 772 4292476927
82.715599 1582.899 774 4292739071
84.157799 1583.1193 776 4292673535
85.343117 1583.1193 776 4292542463
86.796333 1583.3395 778 4292542463
87.985321 1583.3395 778 4292607999
30.3211 1583.5579 791 4284030798
31.533945 1583.5579 791 4284292689
32.647705 1583.3413 789 4284753240
33.805504 1583.233 788 4284752195
34.85321 1582.9082 785 4284752195
35.944954 1582.6918 783 4285211201
36.972477 1582.3669 780 4285211201
38.106422 1582.2587 779 4285408342
39.236698 1582.1505 778 4285342549
40.300919 1581.934 776 4285276491
41.3578 1581.7174 774 4285408076
42.473396 1581.6091 773 4284689736
43.58532 1581.501 772 4284689736
44.693577 1581.3927 771 4284034130
45.798164 1581.2844 770 4283902544
46.972477 1581.2844 770 4284163672
48.14679 1581.2844 770 4284360794
49.166973 1581.0679 768 4284688732
50.337616 1581.0679 768 4284688732
51.427525 1580.9596 767 4285018728
52.51376 1580.8513 766 4286400381
53.680733 1580.8513 766 4286206067
54.847706 1580.8513 766 4286206067
56.014679 1580.8513 766 4286073715
57.091743 1580.7432 765 4285218406
58.256882 1580.7432 765 4285283177
59.42202 1580.7432 765 4285941364
60.587154 1580.7432 765 4285418363
61.752293 1580.7432 765 4286076294
62.917431 1580.7432 765 4284767636
64.082565 1580.7432 765 4287991493
65.350456 1580.8513 766 4285377535
66.517433 1580.8513 766 4290969599
67.684402 1580.8513 766 4294049791
68.851379 1580.8513 766 4293656575
70.018349 1580.8513 766 4293263359
71.297249 1580.9596 767 4293394431
72.579819 1581.0679 768 4293066751
73.981651 1581.2844 770 4293066751
75.15596 1581.2844 770 4292673535
76.449539 1581.3927 771 4292673535
77.746788 1581.501 772 4292739071
79.047707 1581.6091 773 4292804607
80.227524 1581.6091 773 4292607999
81.407341 1581.6091 773 4292870143
82.972481 1581.934 776 4293001215
84.157799 1581.934 776 4292870143
85.475227 1582.0422 777 4292739071
86.796333 1582.1505 778 4292935679
87.985321 1582.1505 778 4292870143
30.366972 1582.4514 792 4284228679
31.581652 1582.4514 792 4284359751
32.746788 1582.345 791 4284622924
33.805504 1582.0256 788 4284948293
34.85321 1581.7064 785 4284948293
35.944954 1581.4935 783 4285211201
37.086239 1581.3872 782 4285276995
38.165138 1581.1743 780 4285800781
39.297249 1581.0679 779 4285866574
40.42569 1580.9614 778 4285407563
41.48624 1580.7487 776 4285473356
42.539448 1580.5358 774 4284557642
43.65321 1580.4293 773 4284557642
44.763302 1580.323 772 4283901776
45.869724 1580.2166 771 4283770190
