# .PCD v0.7 - Point Cloud Data file format
VERSION 0.7
FIELDS x y z rgb
SIZE 4 4 4 4
TYPE F F F U
COUNT 1 1 1 1
WIDTH 1357
HEIGHT 1
VIEWPOINT 0 0 0 1 0 0 0
POINTS 1357
DATA ascii
-35.038532 1617.1156 812 4292265405
-33.836697 1617.2698 813 4292331198
-32.583485 1617.2698 813 4291083196
-31.376146 1617.4238 814 4289175199
-30.209175 1617.7321 816 4288384911
-28.992661 1617.8862 817 4289437855
-27.772476 1618.0404 818 4289766545
-26.510092 1618.0404 818 4289634703
-25.247707 1618.0404 818 4289437069
-23.985321 1618.0404 818 4288253052
-22.78899 1618.3486 820 4288251001
-21.554129 1618.5028 821 4288251001
-20.286238 1618.5028 821 4288250499
-19.018349 1618.5028 821 4288184706
-17.801834 1618.811 823 4287527544
-16.554129 1618.9651 824 4287724922
-15.280734 1618.9651 824 4288053107
-14.007339 1618.9651 824 4287855727
-12.770642 1619.2734 826 4287592556
-11.493578 1619.2734 826 4287789934
-10.231193 1619.4275 827 4287724659
110.14312 1619.5817 828 4289699744
111.42385 1619.5817 828 4289962916
112.70459 1619.5817 828 4289568687
113.82202 1619.4275 827 4288647585
114.93578 1619.2734 826 4287597475
116.21284 1619.2734 826 4286610580
117.15229 1618.9651 824 4284380046
118.42569 1618.9651 824 4284840597
119.5266 1618.811 823 4285756829
120.79816 1618.811 823 4285822623
122.06973 1618.811 823 4285757081
122.98532 1618.5028 821 4285757081
124.25321 1618.5028 821 4285822623
125.5211 1618.5028 821 4286283173
126.60551 1618.3486 820 4285627297
127.50092 1618.0404 818 4285364124
128.57614 1617.8862 817 4287005075
129.8367 1617.8862 817 4292005342
131.09724 1617.8862 817 4294833407
132.3578 1617.8862 817 4294967039
133.42386 1617.7321 816 4294834175
134.68257 1617.7321 816 4291215575
135.94128 1617.7321 816 4285761710
136.8 1617.4238 814 4280432478
138.05504 1617.4238 814 4278190122
139.10641 1617.2698 813 4279312463
140.35963 1617.2698 813 4280956477
141.4055 1617.1156 812 4280298804
142.65688 1617.1156 812 4279967786
143.90826 1617.1156 812 4279770663
144.73395 1616.8074 810 4279768862
145.98166 1616.8074 810 4279900192
147.01285 1616.6532 809 4278589215
148.04036 1616.499 808 4279905075
148.84404 1616.1908 806 4280625720
150.0844 1616.1908 806 4282007373
151.32477 1616.1908 806 4283383895
152.33945 1616.0367 805 4286607752
153.57799 1616.0367 805 4291471808
154.81651 1616.0367 805 4294169320
156.05504 1616.0367 805 4293977840
157.06055 1615.8826 804 4294109169
158.29724 1615.8826 804 4294045178
159.77065 1616.0367 805 4293847798
161.00917 1616.0367 805 4293453041
162.48807 1616.1908 806 4293913592
-56.634861 1614.189 801 4287532968
-55.403671 1614.189 801 4288059312
-54.172478 1614.189 801 4286811055
-53.020184 1614.3413 802 4286876848
-51.787155 1614.3413 802 4288584102
-50.704586 1614.6459 804 4291545043
-49.321102 1614.3413 802 4292068542
-48.231194 1614.6459 804 4292726471
-47.06422 1614.7982 805 4292068542
-45.893578 1614.9504 806 4292002749
-44.65321 1614.9504 806 4292463302
-43.541283 1615.255 808 4292463302
-42.297249 1615.255 808 4292199360
-41.053211 1615.255 808 4292396996
-39.867889 1615.4073 809 4292461753
-38.622017 1615.4073 809 4292461753
-37.431194 1615.5596 810 4292265918
-36.289909 1615.8643 812 4292529347
-35.038532 1615.8643 812 4291543997
-33.836697 1616.0165 813 4289175449
-32.583485 1616.0165 813 4289240740
-31.376146 1616.1688 814 4289437862
-30.209175 1616.4734 816 4289767070
-28.950459 1616.4734 816 4289898656
-27.732111 1616.6257 817 4289437060
-26.510092 1616.778 818 4288515958
-25.247707 1616.778 818 4288647297
-23.985321 1616.778 818 4288186746
-22.722937 1616.778 818 4288251255
-21.46055 1616.778 818 4288514171
-20.286238 1617.2349 821 4288185219
-19.018349 1617.2349 821 4288119426
-17.750458 1617.2349 821 4287725693
-16.530275 1617.5394 823 4287857022
-15.258716 1617.5394 823 4288053622
-14.007339 1617.6918 824 4287922035
-12.733945 1617.6918 824 4287789682
-11.493578 1617.9963 826 4287789682
-10.231193 1618.1487 827 4287724659
113.82202 1618.1487 827 4289699507
114.93578 1617.9963 826 4288715442
116.21284 1617.9963 826 4287728291
117.48991 1617.9963 826 4286349973
118.42569 1617.6918 824 4285823628
119.5266 1617.5394 823 4285429917
120.79816 1617.5394 823 4285495711
121.71743 1617.2349 821 4285429915
122.98532 1617.2349 821 4285429915
124.25321 1617.2349 821 4285495457
125.33945 1617.0825 820 4285956008
126.60551 1617.0825 820 4286283173
127.3156 1616.6257 817 4285822623
128.57614 1616.6257 817 4285822113
129.8367 1616.6257 817 4288848335
130.90642 1616.4734 816 4292266704
132.16513 1616.4734 816 4294967039
133.42386 1616.4734 816 4294967295
134.68257 1616.4734 816 4294966527
135.54495 1616.1688 814 4292861692
136.60001 1616.0165 813 4289111491
137.85321 1616.0165 813 4284575890
139.10641 1616.0165 813 4279641414
140.15413 1615.8643 812 4279974448
141.4055 1615.8643 812 4280500792
142.65688 1615.8643 812 4281544769
143.48624 1615.5596 810 4281807941
144.73395 1615.5596 810 4281477945
145.76697 1615.4073 809 4280754478
146.79633 1615.255 808 4279242518
148.04036 1615.255 808 4278190080
148.84404 1614.9504 806 4278517830
150.0844 1614.9504 806 4289041893
151.10092 1614.7982 805 4292926413
152.33945 1614.7982 805 4294967281
153.57799 1614.7982 805 4294967295
154.81651 1614.7982 805 4294966527
155.82385 1614.6459 804 4294637047
157.06055 1614.6459 804 4293518565
158.29724 1614.6459 804 4293518832
159.53395 1614.6459 804 4293518832
160.77065 1614.6459 804 4293453039
-56.634861 1612.9578 801 4287401389
-55.403671 1612.9578 801 4287204266
-54.172478 1612.9578 801 4286809762
-52.941284 1612.9578 801 4288388538
-51.787155 1613.1083 802 4290161842
-50.554127 1613.1083 802 4292004046
-49.321102 1613.1083 802 4292134071
-48.231194 1613.4092 804 4292397244
-47.06422 1613.5596 805 4292133819
-45.893578 1613.7101 806 4292199612
-44.65321 1613.7101 806 4292594116
-43.412846 1613.7101 806 4292528323
-42.172478 1613.7101 806 4292330428
-41.053211 1614.011 808 4292528064
-39.809174 1614.011 808 4292658882
-38.622017 1614.1615 809 4292724675
-37.431194 1614.3119 810 4292398020
-36.289909 1614.6128 812 4292200898
-35.089909 1614.7633 813 4290691002
-33.836697 1614.7633 813 4288125075
-32.583485 1614.7633 813 4287926429
-31.330275 1614.7633 813 4289373875
-30.121101 1614.9138 814 4290161051
-28.950459 1615.2147 816 4289897622
-27.732111 1615.3651 817 4289108359
-26.47156 1615.3651 817 4288450428
-25.21101 1615.3651 817 4288581251
-23.985321 1615.5156 818 4288383616
-22.722937 1615.5156 818 4288119413
-21.46055 1615.5156 818 4288382584
-20.25688 1615.8165 820 4288251518
-19.018349 1615.9669 821 4288119676
-17.801834 1616.2679 823 4287595386
-16.530275 1616.2679 823 4287463799
-15.280734 1616.4183 824 4287856761
-14.007339 1616.4183 824 4287790967
-12.733945 1616.4183 824 4287855473
-11.493578 1616.7192 826 4287921522
-10.231193 1616.8698 827 4287855475
114.93578 1616.7192 826 4290161594
116.21284 1616.7192 826 4289437614
117.15229 1616.4183 824 4286549153
118.25504 1616.2679 823 4285562258
119.5266 1616.2679 823 4285036443
120.79816 1616.2679 823 4285299615
121.71743 1615.9669 821 4285298327
122.98532 1615.9669 821 4285364120
124.07339 1615.8165 820 4285495711
125.33945 1615.8165 820 4285890468
126.23853 1615.5156 818 4286217380
127.3156 1615.3651 817 4285954465
128.57614 1615.3651 817 4286085533
129.64771 1615.2147 816 4287401393
130.90642 1615.2147 816 4290030003
132.16513 1615.2147 816 4294372342
133.42386 1615.2147 816 4294966527
134.2899 1614.9138 814 4294966527
135.54495 1614.9138 814 4294966015
136.60001 1614.7633 813 4292794604
137.85321 1614.7633 813 4289440976
138.90276 1614.6128 812 4285296017
140.15413 1614.6128 812 4279713131
141.4055 1614.6128 812 4279515753
142.23853 1614.3119 810 4281872450
143.48624 1614.3119 810 4282398795
144.5211 1614.1615 809 4282793028
145.55229 1614.011 808 4281345582
146.3633 1613.7101 806 4279961110
147.60367 1613.7101 806 4281737521
148.84404 1613.7101 806 4284108136
150.0844 1613.7101 806 4291016145
151.10092 1613.5596 805 4293647855
152.33945 1613.5596 805 4294965759
153.57799 1613.5596 805 4294967295
154.58716 1613.4092 804 4294703871
155.36147 1613.1083 802 4294835455
156.36147 1612.9578 801 4293519597
157.59267 1612.9578 801 4293190382
158.82385 1612.9578 801 4293190382
160.05504 1612.9578 801 4293321452
161.04587 1612.8074 800 4294637311
-58.744953 1611.1321 797 4287270575
-57.521099 1611.1321 797 4287336368
-56.550457 1611.578 800 4287401391
-55.321102 1611.578 800 4287270061
-54.091743 1611.578 800 4287992235
-52.941284 1611.7266 801 4290755541
-51.710091 1611.7266 801 4291872709
-50.554127 1611.8752 802 4292530640
-49.321102 1611.8752 802 4292463804
-48.231194 1612.1725 804 4292463804
-47.06422 1612.321 805 4292397759
-45.893578 1612.4697 806 4292463552
-44.65321 1612.4697 806 4292398272
-43.412846 1612.4697 806 4292266943
-42.172478 1612.4697 806 4292397248
-40.93211 1612.4697 806 4292528577
-39.809174 1612.767 808 4292725706
-38.622017 1612.9156 809 4293317844
-37.431194 1613.0642 810 4292136136
-36.183487 1613.0642 810 4290293932
-35.038532 1613.3615 812 4289505958
-33.836697 1613.5101 813 4289111200
-32.583485 1613.5101 813 4289898156
-31.330275 1613.5101 813 4290029742
-30.121101 1613.6587 814 4289831566
-28.950459 1613.9559 816 4289371015
-27.732111 1614.1046 817 4289238923
-26.47156 1614.1046 817 4288515456
-25.21101 1614.1046 817 4288908677
-23.985321 1614.2532 818 4288974470
-22.722937 1614.2532 818 4288383357
-21.46055 1614.2532 818 4288251514
-20.198166 1614.2532 818 4288185469
-19.018349 1614.6991 821 4288185469
-17.750458 1614.6991 821 4287857022
-16.530275 1614.9963 823 4288186244
-15.258716 1614.9963 823 4288119163
-14.007339 1615.1449 824 4288119163
-12.770642 1615.4421 826 4288250231
117.15229 1615.1449 824 4288124083
118.25504 1614.9963 823 4286676637
119.5266 1614.9963 823 4285298077
120.44954 1614.6991 821 4285363870
121.71743 1614.6991 821 4285364372
122.80734 1614.5504 820 4285562008
124.07339 1614.5504 820 4285495708
124.97615 1614.2532 818 4285627551
126.23853 1614.2532 818 4286217121
127.3156 1614.1046 817 4286019486
128.57614 1614.1046 817 4285559707
129.64771 1613.9559 816 4286217380
130.90642 1613.9559 816 4287594929
132.16513 1613.9559 816 4292332025
133.42386 1613.9559 816 4294373611
134.2899 1613.6587 814 4294966005
135.54495 1613.6587 814 4294965759
136.60001 1613.5101 813 4294571004
137.65138 1613.3615 812 4293189882
138.90276 1613.3615 812 4291544801
140.15413 1613.3615 812 4287468999
140.99083 1613.0642 810 4281679214
142.23853 1613.0642 810 4278264136
143.27522 1612.9156 809 4278922323
144.30826 1612.767 808 4281346638
145.55229 1612.767 808 4284899717
146.3633 1612.4697 806 4289306253
147.60367 1612.4697 806 4292924868
148.84404 1612.4697 806 4293649135
150.0844 1612.4697 806 4294504443
151.10092 1612.321 805 4294176509
152.33945 1612.321 805 4294505727
153.57799 1612.321 805 4294703103
154.58716 1612.1725 804 4294637311
155.36147 1611.8752 802 4294572285
156.36147 1611.7266 801 4294243576
157.59267 1611.7266 801 4294243071
158.58716 1611.578 800 4294045693
159.81651 1611.578 800 4293717232
161.04587 1611.578 800 4294440699
-58.744953 1609.9082 797 4287336368
-57.521099 1609.9082 797 4287402161
-56.381653 1610.0551 798 4287467182
-55.321102 1610.3486 800 4287204266
-54.091743 1610.3486 800 4288780202
-52.862385 1610.3486 800 4291938266
-51.710091 1610.4954 801 4291872961
-50.554127 1610.6422 802 4292267719
-49.321102 1610.6422 802 4292464317
-48.231194 1610.9358 804 4292464317
-46.994495 1610.9358 804 4292266941
-45.825687 1611.0825 805 4292464063
-44.587154 1611.0825 805 4292529858
-43.412846 1611.2294 806 4292398272
-42.110092 1611.0825 805 4292398272
-40.93211 1611.2294 806 4292398272
-39.691742 1611.2294 806 4292790727
-38.565136 1611.5229 808 4292922569
-37.321102 1611.5229 808 4291676096
-36.077065 1611.5229 808 4289175962
-35.038532 1612.1101 812 4288452243
-33.787155 1612.1101 812 4289965483
-32.583485 1612.2568 813 4290751149
-31.330275 1612.2568 813 4290027425
-30.121101 1612.4037 814 4289699466
-28.866055 1612.4037 814 4289370502
-27.691744 1612.6973 816 4289106823
-26.433027 1612.6973 816 4288777859
-25.21101 1612.844 817 4288908417
-23.950459 1612.844 817 4288842624
-22.689909 1612.844 817 4288646274
-21.429358 1612.844 817 4288448896
-20.198166 1612.9908 818 4288513921
-19.018349 1613.4312 821 4288251005
-17.750458 1613.4312 821 4288119415
-16.530275 1613.7247 823 4288382586
-15.258716 1613.7247 823 4288382071
-14.007339 1613.8716 824 4288316278
118.25504 1613.7247 823 4287991202
119.5266 1613.7247 823 4286085781
120.44954 1613.4312 821 4285757072
121.71743 1613.4312 821 4285822874
122.80734 1613.2844 820 4285888668
123.71376 1612.9908 818 4285691290
124.97615 1612.9908 818 4285954463
126.05505 1612.844 817 4286217119
127.3156 1612.844 817 4286151326
128.57614 1612.844 817 4285757083
129.64771 1612.6973 816 4285888670
130.90642 1612.6973 816 4286806680
132.16513 1612.6973 816 4290359246
133.03487 1612.4037 814 4293516769
134.09358 1612.2568 813 4294965757
135.34679 1612.2568 813 4294966015
136.39999 1612.1101 812 4294505211
137.65138 1612.1101 812 4294504447
138.90276 1612.1101 812 4293714932
139.74312 1611.8165 810 4291743981
140.99083 1611.8165 810 4286151576
142.23853 1611.8165 810 4282071892
143.27522 1611.6697 809 4279834930
144.30826 1611.5229 808 4280099120
145.12294 1611.2294 806 4285757574
146.3633 1611.2294 806 4291734977
147.60367 1611.2294 806 4294960119
148.62386 1611.0825 805 4294504957
149.86238 1611.0825 805 4294044406
151.10092 1611.0825 805 4293913592
152.11375 1610.9358 804 4294374143
152.89542 1610.6422 802 4294637308
153.89908 1610.4954 801 4294505979
155.13028 1610.4954 801 4294703103
156.12843 1610.3486 800 4294768895
157.3578 1610.3486 800 4294638079
158.58716 1610.3486 800 4294045689
159.81651 1610.3486 800 4293651698
161.28624 1610.4954 801 4293717492
162.51743 1610.4954 801 4293256175
-59.968807 1608.6844 797 4287535028
-58.744953 1608.6844 797 4287731378
-57.521099 1608.6844 797 4287665328
-56.297249 1608.6844 797 4287665069
-55.073395 1608.6844 797 4288980929
-53.930275 1608.8293 798 4289898686
-52.704586 1608.8293 798 4292464356
-51.710091 1609.2642 801 4292661180
-50.554127 1609.4092 802 4292529595
-49.321102 1609.4092 802 4292660674
-48.088074 1609.4092 802 4292924103
-46.994495 1609.6991 804 4292726721
-45.825687 1609.844 805 4292726721
-44.587154 1609.844 805 4292464063
-43.348625 1609.844 805 4292398270
-42.110092 1609.844 805 4292792253
-40.93211 1609.989 806 4293187011
-39.691742 1609.989 806 4292398274
-38.565136 1610.2789 808 4290819243
-37.21101 1609.989 806 4289833894
-36.077065 1610.2789 808 4289636515
-34.93578 1610.5688 810 4290292649
-33.787155 1610.8588 812 4290687406
-32.535778 1610.8588 812 4290619299
-31.284403 1610.8588 812 4289829527
-30.077065 1611.0037 813 4289304457
-28.823853 1611.0037 813 4289107077
-27.61101 1611.1487 814 4289237896
-26.355963 1611.1487 814 4289369482
-25.174313 1611.4385 816 4288711554
-23.915596 1611.4385 816 4288579968
-22.689909 1611.5835 817 4288646274
-21.429358 1611.5835 817 4288448896
-20.198166 1611.7284 818 4288579968
-18.990826 1612.0183 820 4288579968
-17.750458 1612.1633 821 4288645761
-16.530275 1612.4532 823 4289040519
-15.258716 1612.4532 823 4288711034
-14.007339 1612.5981 824 4288711034
-12.733945 1612.5981 824 4288316028
118.25504 1612.4532 823 4289305263
119.5266 1612.4532 823 4287467674
120.44954 1612.1633 821 4286414986
121.71743 1612.1633 821 4285627297
122.45138 1611.7284 818 4285495711
123.71376 1611.7284 818 4285822623
124.97615 1611.7284 818 4286217380
126.23853 1611.7284 818 4286283425
127.3156 1611.5835 817 4286415268
128.57614 1611.5835 817 4286349221
129.64771 1611.4385 816 4286086049
130.90642 1611.4385 816 4286675871
131.77982 1611.1487 814 4287860145
132.84036 1611.0037 813 4291214280
134.09358 1611.0037 813 4294635259
135.14862 1610.8588 812 4294965246
136.39999 1610.8588 812 4294767867
137.65138 1610.8588 812 4294636795
138.49541 1610.5688 810 4294965759
139.74312 1610.5688 810 4294637055
140.99083 1610.5688 810 4293255405
142.02936 1610.4238 809 4291743188
142.6422 1609.989 806 4289769398
143.88257 1609.989 806 4291742923
145.12294 1609.989 806 4294769400
146.14679 1609.844 805 4294966527
147.38531 1609.844 805 4294966015
148.62386 1609.844 805 4294571256
149.64037 1609.6991 804 4293255396
150.87706 1609.6991 804 4293584625
151.66238 1609.4092 802 4293782003
152.89542 1609.4092 802 4294242289
153.89908 1609.2642 801 4294374131
154.89908 1609.1193 800 4294439934
155.66238 1608.8293 798 4294374141
156.88808 1608.8293 798 4294242552
157.87706 1608.6844 797 4293979637
159.10092 1608.6844 797 4293782772
160.32477 1608.6844 797 4293914101
161.30643 1608.5394 796 4293123826
162.52844 1608.5394 796 4293058033
-59.968807 1607.4606 797 4287468980
-58.744953 1607.4606 797 4287731124
-57.521099 1607.4606 797 4287402159
-56.297249 1607.4606 797 4287729579
-55.073395 1607.4606 797 4289900491
-53.849541 1607.4606 797 4290295731
-52.625687 1607.4606 797 4292137935
-51.401836 1607.4606 797 4292989126
-50.253212 1607.6036 798 4292857797
-49.247707 1608.0331 801 4292922819
-48.088074 1608.1761 802 4293054406
-46.855045 1608.1761 802 4292924103
-45.757797 1608.4624 804 4292792517
-44.388992 1608.1761 802 4292265655
-43.348625 1608.6055 805 4292660413
-42.047707 1608.4624 804 4292857795
-40.871559 1608.6055 805 4293120966
-39.691742 1608.7487 806 4292136138
-38.451378 1608.7487 806 4289109403
-37.21101 1608.7487 806 4289567643
-35.970642 1608.7487 806 4290817709
-34.884403 1609.178 809 4290884266
-33.688072 1609.321 810 4290555557
-32.440369 1609.321 810 4290356897
-31.192661 1609.321 810 4289632917
-30.033028 1609.6073 812 4289238150
-28.823853 1609.7505 813 4289435273
-27.570642 1609.7505 813 4289238410
-26.31743 1609.7505 813 4289172616
-25.06422 1609.7505 813 4288711554
-23.845871 1609.8936 814 4288974470
-22.656881 1610.1798 816 4289106825
-21.429358 1610.323 817 4288646274
-20.198166 1610.4661 818 4288710784
-18.990826 1610.7523 820 4288776577
-17.750458 1610.8954 821 4288776577
-16.530275 1611.1816 823 4288973957
-15.258716 1611.1816 823 4288579964
119.18165 1610.8954 821 4288454320
120.44954 1610.8954 821 4286941080
121.71743 1610.8954 821 4286086553
122.45138 1610.4661 818 4286217882
123.71376 1610.4661 818 4286020510
124.79449 1610.323 817 4286217632
126.05505 1610.323 817 4286153123
127.3156 1610.323 817 4286218916
128.38899 1610.1798 816 4286415014
129.64771 1610.1798 816 4286480807
130.52477 1609.8936 814 4286807973
131.3945 1609.6073 812 4286676387
132.84036 1609.7505 813 4289633964
134.09358 1609.7505 813 4294371060
135.14862 1609.6073 812 4294440186
136.39999 1609.6073 812 4294505979
137.24771 1609.321 810 4294571002
138.49541 1609.321 810 4294636795
139.74312 1609.321 810 4294964991
140.57614 1609.0349 808 4294636031
141.82019 1609.0349 808 4293978099
142.6422 1608.7487 806 4293517548
143.88257 1608.7487 806 4293255659
144.90826 1608.6055 805 4294900479
146.14679 1608.6055 805 4294835199
147.38531 1608.6055 805 4294440447
148.40367 1608.4624 804 4294243325
149.64037 1608.4624 804 4293914103
150.42935 1608.1761 802 4293322225
151.66238 1608.1761 802 4293322225
152.66789 1608.0331 801 4293321191
153.66972 1607.8899 800 4293649900
154.89908 1607.8899 800 4293978612
155.66238 1607.6036 798 4293847283
156.88808 1607.6036 798 4293782003
157.87706 1607.4606 797 4293584625
159.10092 1607.4606 797 4293584625
160.0844 1607.3174 796 4293716210
161.30643 1607.3174 796 4293188847
162.52844 1607.3174 796 4293188847
163.75046 1607.3174 796 4293385708
-59.968807 1606.2367 797 4287862460
-58.744953 1606.2367 797 4287928505
-57.434864 1606.0955 796 4287467954
-56.212845 1606.0955 796 4288256175
-55.073395 1606.2367 797 4291085274
-53.849541 1606.2367 797 4292005050
-52.625687 1606.2367 797 4292860358
-51.401836 1606.2367 797 4293056204
-50.177982 1606.2367 797 4292924618
-49.027523 1606.3779 798 4292660424
-48.016514 1606.8019 801 4292858060
-46.855045 1606.9431 802 4292924105
-45.622017 1606.9431 802 4293252814
-44.388992 1606.9431 802 4292529347
-43.155964 1606.9431 802 4292792263
-42.047707 1607.2257 804 4292792769
-40.871559 1607.3669 805 4292332218
-39.633026 1607.3669 805 4291346113
-38.451378 1607.5083 806 4288846236
-37.21101 1607.5083 806 4289569201
-35.970642 1607.5083 806 4291016647
-34.833027 1607.7908 808 4291146659
-33.638531 1607.9321 809 4290488728
-32.392662 1607.9321 809 4290356125
-31.192661 1608.0734 810 4289829781
-30.033028 1608.356 812 4289502351
-28.781651 1608.356 812 4289568145
-27.570642 1608.4972 813 4289238925
-26.31743 1608.4972 813 4289107596
-25.06422 1608.4972 813 4288909449
-23.811008 1608.4972 813 4289370000
-22.656881 1608.9211 816 4289041032
-21.429358 1609.0624 817 4288909447
-20.198166 1609.2036 818 4289041802
-18.990826 1609.4862 820 4289370511
119.18165 1609.6276 821 4290031289
120.27523 1609.4862 820 4287925656
121.54128 1609.4862 820 4285824921
122.45138 1609.2036 818 4285890970
123.53394 1609.0624 817 4285956000
124.79449 1609.0624 817 4285956000
126.05505 1609.0624 817 4286153125
127.13027 1608.9211 816 4286153125
128.38899 1608.9211 816 4286415016
129.64771 1608.9211 816 4286546602
130.52477 1608.6385 814 4286940842
131.3945 1608.356 812 4286480291
132.64587 1608.356 812 4286741415
133.89725 1608.356 812 4292136440
135.14862 1608.356 812 4294044655
136 1608.0734 810 4294966271
137.24771 1608.0734 810 4294768637
138.49541 1608.0734 810 4294702844
139.53761 1607.9321 809 4294966271
140.16147 1607.5083 806 4294966783
141.40184 1607.5083 806 4294702591
142.6422 1607.5083 806 4294768383
143.88257 1607.5083 806 4294703103
144.90826 1607.3669 805 4294966271
146.14679 1607.3669 805 4294374143
147.16698 1607.2257 804 4294045178
148.40367 1607.2257 804 4294308349
149.19633 1606.9431 802 4294439935
150.20551 1606.8019 801 4293584625
151.43669 1606.8019 801 4293453039
152.44037 1606.6605 800 4293518315
153.66972 1606.6605 800 4293584109
154.43669 1606.3779 798 4293453041
155.42935 1606.2367 797 4293387247
156.65321 1606.2367 797 4293518834
157.64037 1606.0955 796 4293518834
158.86238 1606.0955 796 4293847794
160.0844 1606.0955 796 4293847794
161.30643 1606.0955 796 4293254640
162.04036 1605.8129 794 4293254640
163.75046 1606.0955 796 4293385710
-60.238533 1605.4312 800 4287862714
-58.744953 1605.0128 797 4287928507
-57.434864 1604.8734 796 4287402163
-56.212845 1604.8734 796 4288912824
-54.990826 1604.8734 796 4291873252
-53.849541 1605.0128 797 4292399294
-52.625687 1605.0128 797 4292794052
-51.401836 1605.0128 797 4292990409
-50.177982 1605.0128 797 4292858823
-48.954128 1605.0128 797 4292265655
-47.944954 1605.4312 800 4292989378
-46.78532 1605.5707 801 4292989896
-45.622017 1605.7101 802 4293121225
-44.388992 1605.7101 802 4292660415
-43.155964 1605.7101 802 4293120966
-41.922935 1605.7101 802 4293120712
-40.871559 1606.1284 805 4291146922
-39.633026 1606.1284 805 4290489512
-38.451378 1606.2679 806 4290028961
-37.21101 1606.2679 806 4290293682
-35.970642 1606.2679 806 4291017149
-34.833027 1606.5468 808 4291540135
-33.588989 1606.5468 808 4290553240
-32.392662 1606.6863 809 4290159002
-31.192661 1606.8257 810 4289961367
-29.944954 1606.8257 810 4289765008
-28.781651 1607.1046 812 4289633421
-27.530275 1607.1046 812 4289108107
-26.31743 1607.244 813 4289042314
-25.06422 1607.244 813 4288843906
-23.811008 1607.244 813 4289107077
-22.590826 1607.3835 814 4288843654
-21.398165 1607.6624 816 4288909447
-20.168808 1607.8019 817 4288976522
-18.990826 1608.2202 820 4289042316
120.27523 1608.2202 820 4288583076
121.54128 1608.2202 820 4286744480
122.45138 1607.9413 818 4286283929
123.53394 1607.8019 817 4285759650
124.79449 1607.8019 817 4285956773
126.05505 1607.8019 817 4285955746
127.13027 1607.6624 816 4286087075
128.38899 1607.6624 816 4286415014
129.26973 1607.3835 814 4286480807
130.33394 1607.244 813 4286678183
131.58716 1607.244 813 4286086303
132.64587 1607.1046 812 4286414230
133.89725 1607.1046 812 4290624982
135.14862 1607.1046 812 4292730083
136 1606.8257 810 4294703871
137.24771 1606.8257 810 4294900735
138.29175 1606.6863 809 4294703103
139.53761 1606.6863 809 4294834687
140.16147 1606.2679 806 4294703103
141.40184 1606.2679 806 4294308347
142.6422 1606.2679 806 4294637311
143.66972 1606.1284 805 4294702844
144.90826 1606.1284 805 4294834430
145.93028 1605.989 804 4294307836
146.73027 1605.7101 802 4294307836
147.9633 1605.7101 802 4294307064
149.19633 1605.7101 802 4294438650
150.20551 1605.5707 801 4294044660
151.43669 1605.5707 801 4293715695
152.66789 1605.5707 801 4293846513
153.66972 1605.4312 800 4293846513
154.43669 1605.1523 798 4293583857
155.42935 1605.0128 797 4293583857
156.65321 1605.0128 797 4293649650
157.87706 1605.0128 797 4293781236
158.86238 1604.8734 796 4294110453
160.0844 1604.8734 796 4294044660
161.30643 1604.8734 796 4293518063
162.04036 1604.5945 794 4293386734
163.25871 1604.5945 794 4293385708
-58.744953 1603.7889 797 4287993017
-57.434864 1603.6514 796 4289111241
-56.212845 1603.6514 796 4289964753
-54.990826 1603.6514 796 4292925439
-53.768806 1603.6514 796 4292991163
-52.546787 1603.6514 796 4292991163
-51.324772 1603.6514 796 4293056708
-50.177982 1603.7889 797 4293056708
-48.954128 1603.7889 797 4292595905
-47.730274 1603.7889 797 4293122250
-46.715595 1604.2018 800 4292858821
-45.48624 1604.2018 800 4292924614
-44.322937 1604.3395 801 4292924353
-43.155964 1604.4771 802 4293319111
-41.922935 1604.4771 802 4292334283
-40.811008 1604.7523 804 4289044633
-39.633026 1604.8899 805 4289503909
-38.394497 1604.8899 805 4291082942
-37.21101 1605.0275 806 4291607725
-35.970642 1605.0275 806 4291081381
-34.730274 1605.0275 806 4291079071
-33.588989 1605.3027 808 4290289555
-32.344955 1605.3027 808 4290159516
-31.100918 1605.3027 808 4290159516
-29.85688 1605.3027 808 4289963152
-28.697248 1605.578 810 4290357910
-27.530275 1605.8533 812 4289437069
-26.278898 1605.8533 812 4289239947
-25.06422 1605.9908 813 4289370763
-23.811008 1605.9908 813 4289370763
-22.557798 1605.9908 813 4289369998
-21.335779 1606.1284 814 4289304205
-20.168808 1606.5413 817 4289370511
-18.990826 1606.9541 820 4289568147
121.18899 1606.679 818 4288453297
122.27339 1606.5413 817 4286940315
123.53394 1606.5413 817 4285955746
124.79449 1606.5413 817 4286218918
125.87156 1606.4037 816 4286217382
127.13027 1606.4037 816 4286086053
128.01468 1606.1284 814 4286349223
129.08073 1605.9908 813 4286283173
130.33394 1605.9908 813 4286415266
131.3945 1605.8533 812 4286283679
132.64587 1605.8533 812 4286348707
133.50459 1605.578 810 4288651462
134.75229 1605.578 810 4291018193
136 1605.578 810 4294834431
137.04587 1605.4404 809 4294966271
138.29175 1605.4404 809 4294768383
139.33211 1605.3027 808 4294703103
140.16147 1605.0275 806 4294505981
141.40184 1605.0275 806 4294505981
142.4312 1604.8899 805 4294900735
143.66972 1604.8899 805 4294834941
144.90826 1604.8899 805 4294834941
145.93028 1604.7523 804 4294965759
146.73027 1604.4771 802 4294966271
147.9633 1604.4771 802 4294571002
148.97432 1604.3395 801 4294373879
150.20551 1604.3395 801 4294176246
151.43669 1604.3395 801 4293715695
152.44037 1604.2018 800 4293781236
153.66972 1604.2018 800 4294241787
154.43669 1603.9266 798 4293584625
155.42935 1603.7889 797 4293453039
156.41835 1603.6514 796 4293518832
157.64037 1603.6514 796 4293716210
158.86238 1603.6514 796 4293716208
159.60367 1603.3761 794 4293519086
160.82202 1603.3761 794 4293649648
162.04036 1603.3761 794 4294110199
163.25871 1603.3761 794 4293649902
-58.656879 1602.4293 796 4288123833
-57.262386 1602.1578 794 4290229465
-56.044037 1602.1578 794 4291018436
-54.825687 1602.1578 794 4292728798
-53.607338 1602.1578 794 4292661701
-52.546787 1602.4293 796 4293056202
-51.324772 1602.4293 796 4293056716
-50.102753 1602.4293 796 4292990922
-48.880733 1602.4293 796 4292530119
-47.730274 1602.5652 797 4292661962
-46.576145 1602.7009 798 4292267456
-45.35046 1602.7009 798 4293056716
-44.256882 1602.9725 800 4293188304
-43.091743 1603.1083 801 4292859595
-41.922935 1603.244 802 4291546047
-40.811008 1603.5156 804 4288914328
-39.57431 1603.5156 804 4289635234
-38.394497 1603.6514 805 4291608768
-37.155964 1603.6514 805 4292132020
-35.917431 1603.6514 805 4291276711
-34.730274 1603.7871 806 4290684572
-33.48991 1603.7871 806 4290421657
-32.344955 1604.0587 808 4290421918
-31.100918 1604.0587 808 4290159002
-29.85688 1604.0587 808 4289765523
-28.655046 1604.1945 809 4289962902
-27.449541 1604.3303 810 4289568912
-26.278898 1604.6018 812 4289239947
-25.027523 1604.6018 812 4289371013
-23.776146 1604.6018 812 4289371013
-22.557798 1604.7377 813 4289304972
-21.335779 1604.8734 814 4289370765
-20.168808 1605.2808 817 4289632654
121.18899 1605.4165 818 4289570234
122.27339 1605.2808 817 4287596444
123.53394 1605.2808 817 4286217634
124.79449 1605.2808 817 4286349221
125.87156 1605.1449 816 4286282660
127.13027 1605.1449 816 4286282660
128.01468 1604.8734 814 4286611625
129.08073 1604.7377 813 4286545832
130.14311 1604.6018 812 4286481061
131.3945 1604.6018 812 4286349219
132.25688 1604.3303 810 4286217380
133.50459 1604.3303 810 4287336118
134.75229 1604.3303 810 4290227137
135.8 1604.1945 809 4294898431
137.04587 1604.1945 809 4294637311
138.08807 1604.0587 808 4294505727
138.9211 1603.7871 806 4294637311
140.16147 1603.7871 806 4294439934
141.40184 1603.7871 806 4294505981
142.4312 1603.6514 805 4294900735
143.66972 1603.6514 805 4294834941
144.69357 1603.5156 804 4294834941
145.93028 1603.5156 804 4294637311
146.51193 1603.1083 801 4294703103
147.74312 1603.1083 801 4294636797
148.97432 1603.1083 801 4294571004
150.20551 1603.1083 801 4294242554
151.21101 1602.9725 800 4293847796
152.44037 1602.9725 800 4293846513
153.21101 1602.7009 798 4293978099
154.43669 1602.7009 798 4293519345
155.42935 1602.5652 797 4293322223
156.41835 1602.4293 796 4293585392
157.64037 1602.4293 796 4293519599
158.86238 1602.4293 796 4293322225
159.60367 1602.1578 794 4293256175
160.82202 1602.1578 794 4293124078
161.79633 1602.022 793 4293255407
163.01285 1602.022 793 4293649648
-58.889908 1599.7339 785 4288520387
-58.480736 1600.9395 794 4288518589
-57.262386 1600.9395 794 4291281894
-56.044037 1600.9395 794 4292464063
-54.825687 1600.9395 794 4293385165
-53.607338 1600.9395 794 4293384917
-52.388992 1600.9395 794 4293516503
-51.324772 1601.2073 796 4293188045
-50.102753 1601.2073 796 4293188045
-48.880733 1601.2073 796 4293319640
-47.658714 1601.2073 796 4293253847
-46.50642 1601.3413 797 4292924366
-45.28257 1601.3413 797 4293516503
-44.124771 1601.4752 798 4293057238
-42.899082 1601.4752 798 4291477950
-41.798164 1601.7432 800 4290558385
-40.689907 1602.011 802 4290032041
-39.456882 1602.011 802 4291214512
-38.337616 1602.2789 804 4291675063
-37.100918 1602.2789 804 4291737514
-35.917431 1602.4128 805 4291145377
-34.678898 1602.4128 805 4290816674
-33.48991 1602.5468 806 4290882723
-32.249542 1602.5468 806 4290487963
-31.100918 1602.8147 808 4290158998
-29.85688 1602.8147 808 4289764756
-28.612844 1602.8147 808 4290027927
-27.409174 1602.9486 809 4289831055
-26.201836 1603.0825 810 4289831055
-24.954128 1603.0825 810 4289831051
-23.706423 1603.0825 810 4289962636
-22.524771 1603.3505 812 4289634705
-21.335779 1603.6184 814 4289634705
-20.168808 1604.0201 817 4289765521
-18.93578 1604.1542 818 4289831314
122.27339 1604.0201 817 4288385944
123.53394 1604.0201 817 4286350252
124.79449 1604.0201 817 4286416045
125.87156 1603.8862 816 4286480811
127.13027 1603.8862 816 4286546604
128.01468 1603.6184 814 4286414762
128.89174 1603.3505 812 4286480811
130.14311 1603.3505 812 4286677672
131.00917 1603.0825 810 4286611879
132.25688 1603.0825 810 4286086826
133.50459 1603.0825 810 4286679219
134.55412 1602.9486 809 4288122818
135.60001 1602.8147 808 4293254655
137.04587 1602.9486 809 4294571254
138.08807 1602.8147 808 4294308338
138.9211 1602.5468 806 4294242041
140.16147 1602.5468 806 4294044406
141.19266 1602.4128 805 4294440188
142.4312 1602.4128 805 4294966527
143.45688 1602.2789 804 4294704125
144.69357 1602.2789 804 4294967295
145.28073 1601.8771 801 4294637310
146.51193 1601.8771 801 4294505981
147.74312 1601.8771 801 4294505727
148.75229 1601.7432 800 4294768895
149.98166 1601.7432 800 4294768895
151.21101 1601.7432 800 4294176759
151.98532 1601.4752 798 4293781490
153.21101 1601.4752 798 4293781490
154.20551 1601.3413 797 4293584625
155.19633 1601.2073 796 4293584625
156.41835 1601.2073 796 4293584625
157.64037 1601.2073 796 4293584625
158.38531 1600.9395 794 4293322225
159.60367 1600.9395 794 4293190382
160.82202 1600.9395 794 4292992751
161.79633 1600.8055 793 4292926958
163.01285 1600.8055 793 4293188847
-59.159634 1598.9285 788 4287730360
-57.86422 1598.7964 787 4288057776
-56.744953 1598.9285 788 4291676391
-55.875229 1599.4569 792 4292661195
-54.57798 1599.3247 791 4293384917
-53.526604 1599.589 793 4293318350
-52.388992 1599.7211 794 4293449679
-51.170643 1599.7211 794 4293252804
-50.102753 1599.9854 796 4293515720
-48.880733 1599.9854 796 4293450962
-47.658714 1599.9854 796 4293450962
-46.436699 1599.9854 796 4292989896
-45.21468 1599.9854 796 4293450447
-44.058716 1600.1174 797 4293056466
-42.834862 1600.1174 797 4290096037
-41.673393 1600.2495 798 4290159262
-40.629356 1600.6459 801 4291672757
-39.456882 1600.778 802 4291609792
-38.223854 1600.778 802 4291346363
-37.100918 1601.0422 804 4291146663
-35.86422 1601.0422 804 4291014820
-34.627522 1601.0422 804 4290882723
-33.440369 1601.1743 805 4290882723
-32.249542 1601.3064 806 4290553756
-31.100918 1601.5707 808 4290290584
-29.85688 1601.5707 808 4290222990
-28.612844 1601.5707 808 4290420625
-27.368807 1601.5707 808 4289961869
-26.163303 1601.7028 809 4289961869
-25.027523 1602.0991 812 4290159250
-23.67156 1601.7028 809 4290554008
-22.557798 1602.2312 813 4290161564
-21.304586 1602.2312 813 4289832600
-20.13945 1602.6276 816 4289766806
125.87156 1602.6276 816 4286284459
126.75964 1602.3633 814 4286284459
128.01468 1602.3633 814 4286349223
128.89174 1602.0991 812 4286480809
130.14311 1602.0991 812 4286743463
131.00917 1601.8348 810 4286611877
132.06238 1601.7028 809 4285889701
133.30826 1601.7028 809 4286547630
134.35596 1601.5707 808 4287860913
135.2 1601.3064 806 4292532216
136.84404 1601.5707 808 4293387497
137.68074 1601.3064 806 4294176757
138.9211 1601.3064 806 4294307834
139.95413 1601.1743 805 4294176248
141.19266 1601.1743 805 4294374392
142.22018 1601.0422 804 4294505979
143.03119 1600.778 802 4294374904
144.04955 1600.6459 801 4294506746
145.28073 1600.6459 801 4294638078
146.29358 1600.5138 800 4294572285
147.52293 1600.5138 800 4294439934
148.30826 1600.2495 798 4294703103
149.53395 1600.2495 798 4294768895
150.75963 1600.2495 798 4294308347
151.7578 1600.1174 797 4294176246
152.98166 1600.1174 797 4293978866
153.97432 1599.9854 796 4293847281
155.19633 1599.9854 796 4293847281
155.94862 1599.7211 794 4293912304
157.16698 1599.7211 794 4293978353
158.38531 1599.7211 794 4293322225
159.3633 1599.589 793 4293124589
160.57982 1599.589 793 4292926956
161.55229 1599.4569 792 4292992749
162.5211 1599.3247 791 4293056999
-59.069725 1597.5908 787 4288388036
-57.952293 1597.7211 788 4289241787
-56.831192 1597.8513 789 4292531437
-55.790825 1598.1119 791 4293319122
-54.660549 1598.2422 792 4293384915
-53.445873 1598.2422 792 4293515470
-52.310093 1598.3724 793 4293186761
-51.170643 1598.5028 794 4293187009
-49.952293 1598.5028 794 4293647560
-48.733944 1598.5028 794 4293319113
-47.658714 1598.7633 796 4293384906
-46.436699 1598.7633 796 4293187020
-45.21468 1598.7633 796 4293384656
-43.992661 1598.7633 796 4292727757
-42.834862 1598.8936 797 4289964451
-41.673393 1599.0238 798 4290685369
-40.568806 1599.2844 800 4292659159
-39.398167 1599.4147 801 4292133569
-38.223854 1599.5449 802 4291541176
-36.990826 1599.5449 802 4291081127
-35.86422 1599.8055 804 4291147176
-34.627522 1599.8055 804 4290882469
-33.390827 1599.8055 804 4290816676
-32.201836 1599.9358 805 4290751134
-31.009174 1600.066 806 4290619549
-29.768806 1600.066 806 4290619801
-28.612844 1600.3267 808 4290817180
-27.368807 1600.3267 808 4290751384
-26.124771 1600.3267 808 4290751384
-24.917431 1600.4569 809 4290750881
-23.67156 1600.4569 809 4290948516
-22.524771 1600.8477 812 4290817180
-21.273394 1600.8477 812 4290488215
-20.13945 1601.3688 816 4290620576
126.75964 1601.1083 814 4286416045
127.82752 1600.978 813 4286678185
128.89174 1600.8477 812 4286678185
129.76147 1600.5872 810 4286677668
130.81651 1600.4569 809 4286677668
132.06238 1600.4569 809 4286218666
133.11192 1600.3267 808 4286810803
134.35596 1600.3267 808 4287663534
135.2 1600.066 806 4290492633
136.44037 1600.066 806 4292728018
137.68074 1600.066 806 4294175464
138.71559 1599.9358 805 4294373879
139.95413 1599.9358 805 4294176244
141.19266 1599.9358 805 4294242289
141.58716 1599.4147 801 4294242289
142.81834 1599.4147 801 4293980146
143.83487 1599.2844 800 4293914353
144.6312 1599.0238 798 4294505979
145.85689 1599.0238 798 4294834943
147.08257 1599.0238 798 4294571004
148.08624 1598.8936 797 4294373625
149.31009 1598.8936 797 4294636795
150.53395 1598.8936 797 4294373879
151.53027 1598.7633 796 4294242293
152.75229 1598.7633 796 4294176244
153.51193 1598.5028 794 4294176244
154.73027 1598.5028 794 4294242293
155.94862 1598.5028 794 4294044658
156.93028 1598.3724 793 4294110451
157.90826 1598.2422 792 4293782003
159.12294 1598.2422 792 4293716210
160.33762 1598.2422 792 4293453039
161.30826 1598.1119 791 4293518832
162.02936 1597.8513 789 4293123308
-60.27523 1596.3854 787 4287534526
-59.069725 1596.3854 787 4288060870
-57.86422 1596.3854 787 4290029240
-56.658714 1596.3854 787 4293253097
-55.537613 1596.5138 788 4293319124
-54.247707 1596.3854 787 4293319124
-53.445873 1597.0275 792 4293122765
-52.231194 1597.0275 792 4293122765
-51.016514 1597.0275 792 4293188043
-49.801834 1597.0275 792 4293319372
-48.733944 1597.2844 794 4293318861
-47.658714 1597.5413 796 4293450447
-46.436699 1597.5413 796 4293187795
-45.21468 1597.5413 796 4293187795
-43.992661 1597.5413 796 4292398790
-42.770641 1597.5413 796 4290227621
-41.611008 1597.6697 797 4291078578
-40.447708 1597.7982 798 4292986575
-39.398167 1598.1835 801 4292133821
-38.223854 1598.3119 802 4291607221
-36.990826 1598.3119 802 4290950051
-35.757797 1598.3119 802 4291147174
-34.524769 1598.3119 802 4290882721
-33.390827 1598.5688 804 4290882721
-32.154129 1598.5688 804 4291013276
-30.963303 1598.6973 805 4290947482
-29.768806 1598.8257 806 4290816664
-28.52844 1598.8257 806 4290882458
-27.368807 1599.0825 808 4290817180
-26.124771 1599.0825 808 4290751130
-24.917431 1599.2111 809 4290750619
-23.67156 1599.2111 809 4291013791
-22.524771 1599.5963 812 4291079071
-21.21101 1599.3395 810 4291144864
-20.080734 1599.8533 814 4290949027
125.50459 1599.8533 814 4286677931
126.75964 1599.8533 814 4286743724
127.82752 1599.7247 813 4286677931
128.89174 1599.5963 812 4286677931
129.76147 1599.3395 810 4286743465
130.81651 1599.2111 809 4286677672
131.86789 1599.0825 808 4286480557
133.11192 1599.0825 808 4286743729
133.95964 1598.8257 806 4287269289
135.2 1598.8257 806 4289835473
136.23853 1598.6973 805 4291872207
137.47707 1598.6973 805 4294109169
138.51009 1598.5688 804 4294307834
139.33211 1598.3119 802 4293847283
140.56514 1598.3119 802 4293715693
141.58716 1598.1835 801 4293781742
142.6055 1598.0551 800 4293387497
143.83487 1598.0551 800 4293716206
144.6312 1597.7982 798 4294307316
145.63853 1597.6697 797 4294307316
146.86238 1597.6697 797 4294242041
148.08624 1597.6697 797 4294702591
149.31009 1597.6697 797 4294636795
150.30826 1597.5413 796 4294571002
151.53027 1597.5413 796 4294242554
152.75229 1597.5413 796 4294045176
153.51193 1597.2844 794 4293782001
154.73027 1597.2844 794 4293519086
155.71376 1597.156 793 4293715182
156.69357 1597.0275 792 4293715182
157.90826 1597.0275 792 4293912304
158.88257 1596.899 791 4293978353
160.09541 1596.899 791 4293846511
160.82019 1596.6422 789 4293649389
162.02936 1596.6422 789 4293123304
-60.27523 1595.1798 787 4288453827
-59.069725 1595.1798 787 4289177807
-57.86422 1595.1798 787 4290556602
-56.658714 1595.1798 787 4293253858
-55.453213 1595.1798 787 4293648342
-54.247707 1595.1798 787 4293648342
-53.042202 1595.1798 787 4293450960
-52.152294 1595.6863 791 4293582803
-50.939449 1595.6863 791 4293384656
-49.801834 1595.8129 792 4293318863
-48.587154 1595.8129 792 4293449677
-47.515594 1596.066 794 4293976021
-46.297249 1596.066 794 4293319640
-45.21468 1596.3192 796 4292595917
-43.992661 1596.3192 796 4291609790
-42.770641 1596.3192 796 4290688688
-41.548622 1596.3192 796 4291541948
-40.387157 1596.4459 797 4292528843
-39.222019 1596.5725 798 4292001979
-38.166973 1596.9523 801 4291673270
-36.93578 1596.9523 801 4291278760
-35.757797 1597.0789 802 4291673518
-34.524769 1597.0789 802 4291277731
-33.291744 1597.0789 802 4291277731
-32.154129 1597.3322 804 4291342742
-30.963303 1597.4587 805 4291342742
-29.724771 1597.4587 805 4290619549
-28.52844 1597.5853 806 4290948514
-27.288073 1597.5853 806 4290949279
-26.124771 1597.8385 808 4291278501
-24.880733 1597.8385 808 4291343774
-23.67156 1597.9651 809 4291409567
-22.425688 1597.9651 809 4291080100
-21.21101 1598.0918 810 4291409065
-20.051376 1598.4716 813 4291409063
-18.825687 1598.5981 814 4292132785
126.57431 1598.4716 813 4286284974
127.64037 1598.345 812 4286284207
128.51376 1598.0918 810 4286284207
129.76147 1598.0918 810 4286742443
130.62386 1597.8385 808 4286808236
131.4789 1597.5853 806 4286546350
132.71927 1597.5853 806 4286941108
133.95964 1597.5853 806 4287138219
135 1597.4587 805 4289112265
136.23853 1597.4587 805 4291016399
137.27339 1597.3322 804 4294108413
138.09908 1597.0789 802 4294175733
139.33211 1597.0789 802 4293846511
140.35596 1596.9523 801 4293846511
141.58716 1596.9523 801 4294175733
142.6055 1596.8257 800 4293584625
143.4055 1596.5725 798 4293584625
144.41467 1596.4459 797 4294044658
145.63853 1596.4459 797 4294176244
146.6422 1596.3192 796 4294307064
147.86423 1596.3192 796 4294899199
149.08624 1596.3192 796 4294636795
150.30826 1596.3192 796 4294636795
151.53027 1596.3192 796 4294440447
152.29358 1596.066 794 4293979896
153.51193 1596.066 794 4293584625
154.49725 1595.9395 793 4293387245
155.4789 1595.8129 792 4293583855
156.69357 1595.8129 792 4293583855
157.66972 1595.6863 791 4293649387
158.88257 1595.6863 791 4293715180
159.61101 1595.433 789 4293584107
160.57614 1595.3064 788 4293518313
161.53761 1595.1798 787 4292926692
-60.091743 1593.7247 785 4288650690
-58.889908 1593.7247 785 4290032343
-57.688072 1593.7247 785 4291082694
-56.48624 1593.7247 785 4293451242
-55.453213 1593.9744 787 4293779673
-54.082569 1593.7247 785 4293582551
-52.880733 1593.7247 785 4293122765
-51.836697 1593.9744 787 4293320144
-50.939449 1594.4734 791 4293515470
-49.726604 1594.4734 791 4293515470
-48.587154 1594.5981 792 4293318346
-47.515594 1594.8477 794 4293976275
-46.297249 1594.8477 794 4293253847
-45.078899 1594.8477 794 4291214264
-43.86055 1594.8477 794 4290884268
-42.770641 1595.0973 796 4291344819
-41.548622 1595.0973 796 4291807166
-40.387157 1595.222 797 4292136388
-39.163303 1595.222 797 4291674553
-38.110092 1595.5963 800 4291345589
-36.880733 1595.5963 800 4290818209
-35.704586 1595.7211 801 4291081381
-34.473396 1595.7211 801 4291013276
-33.291744 1595.8458 802 4291408033
-32.058716 1595.8458 802 4291277731
-30.825687 1595.8458 802 4291211681
-29.680735 1596.0955 804 4290553756
-28.486238 1596.2202 805 4290948514
-27.288073 1596.345 806 4290949279
-26.124771 1596.5945 808 4291278501
-24.880733 1596.5945 808 4291278499
-23.67156 1596.7192 809 4291212706
-22.458715 1596.844 810 4290948764
-21.273394 1597.0936 812 4291343522
-20.051376 1597.2184 813 4291409317
127.26605 1596.844 810 4286414762
128.32477 1596.7192 809 4286480811
129.57065 1596.7192 809 4286611112
130.62386 1596.5945 808 4286808234
131.4789 1596.345 806 4286611625
132.52293 1596.2202 805 4287006383
133.76147 1596.2202 805 4287269807
134.8 1596.0955 804 4288190909
135.63303 1595.8458 802 4290883012
136.86606 1595.8458 802 4293843953
137.89359 1595.7211 801 4293846000
139.12477 1595.7211 801 4293977586
140.14679 1595.5963 800 4293846511
141.37614 1595.5963 800 4293846511
142.17981 1595.3468 798 4293584879
143.19083 1595.222 797 4293519086
144.19817 1595.0973 796 4293715695
145.42018 1595.0973 796 4293781488
146.6422 1595.0973 796 4293649387
147.86423 1595.0973 796 4294175731
149.08624 1595.0973 796 4294176244
149.85689 1594.8477 794 4294505208
151.07523 1594.8477 794 4294374654
152.06422 1594.7229 793 4293979896
153.04955 1594.5981 792 4293518834
154.26422 1594.5981 792 4293518834
155.24403 1594.4734 791 4293649650
156.45688 1594.4734 791 4293583857
157.19266 1594.2239 789 4293453293
158.40184 1594.2239 789 4293519086
159.3688 1594.0991 788 4293453039
160.33211 1593.9744 787 4293255659
161.53761 1593.9744 787 4292926692
-60 1592.4 784 4288716737
-58.799999 1592.4 784 4290361563
-57.599998 1592.4 784 4291411157
-56.400002 1592.4 784 4293713911
-55.284405 1592.5229 785 4294042327
-54.082569 1592.5229 785 4294042327
-52.799999 1592.4 784 4293516757
-51.678898 1592.5229 785 4293779673
-50.631191 1592.7688 787 4293976273
-49.500916 1592.8917 788 4294173908
-48.51376 1593.2605 791 4293647310
-47.372478 1593.3835 792 4294042068
-46.157799 1593.3835 792 4293188819
-45.011009 1593.5065 793 4290557100
-43.86055 1593.6294 794 4290754233
-42.6422 1593.6294 794 4292398802
-41.548622 1593.8752 796 4292529847
-40.326607 1593.8752 796 4292464054
-39.163303 1593.9982 797 4291609010
-37.939449 1593.9982 797 4291477168
-36.880733 1594.3669 800 4291344553
-35.651375 1594.3669 800 4291344553
-34.473396 1594.4899 801 4291409063
-33.242203 1594.4899 801 4291540905
-32.011009 1594.4899 801 4291408815
-30.825687 1594.6128 802 4291408815
-29.592661 1594.6128 802 4291342770
-28.359632 1594.6128 802 4291869114
-27.247707 1594.9817 805 4291475625
-26.047707 1595.1046 806 4291607212
-24.880733 1595.3505 808 4291475621
-23.67156 1595.4734 809 4291739050
-22.458715 1595.5963 810 4291869866
-21.273394 1595.8422 812 4292396210
128.51376 1595.5963 810 4286548653
129.37982 1595.3505 808 4286743724
130.23853 1595.1046 806 4286941360
131.28441 1594.9817 805 4286678185
132.52293 1594.9817 805 4286546600
133.16698 1594.6128 802 4287138223
134.39999 1594.6128 802 4287927483
135.63303 1594.6128 802 4289832890
136.66238 1594.4899 801 4292793832
137.89359 1594.4899 801 4293648616
139.12477 1594.4899 801 4294569718
140.14679 1594.3669 800 4293846511
140.95413 1594.1211 798 4293517802
142.17981 1594.1211 798 4293453293
143.19083 1593.9982 797 4293584879
144.19817 1593.8752 796 4293846765
145.42018 1593.8752 796 4293649387
146.6422 1593.8752 796 4293583593
147.42018 1593.6294 794 4294109938
148.63853 1593.6294 794 4294242293
149.85689 1593.6294 794 4294505208
150.8477 1593.5065 793 4294505208
152.06422 1593.5065 793 4294242293
153.04955 1593.3835 792 4293912308
154.03119 1593.2605 791 4293846259
155.24403 1593.2605 791 4293584629
155.98349 1593.0146 789 4293386993
156.95413 1592.8917 788 4293321450
158.16147 1592.8917 788 4293519086
159.1266 1592.7688 787 4293518063
159.84404 1592.5229 785 4292860134
161.04587 1592.5229 785 4293189097
-59.816513 1590.9578 782 4289044672
-58.620182 1590.9578 782 4291544549
-57.599998 1591.2 784 4292332756
-56.400002 1591.2 784 4293714409
-55.200001 1591.2 784 4293910998
-54 1591.2 784 4293910998
-52.799999 1591.2 784 4293450962
-51.599998 1591.2 784 4293516755
-50.477066 1591.321 785 4293713105
-49.42569 1591.5634 787 4293910228
-48.293579 1591.6844 788 4293449679
-47.157799 1591.8055 789 4294107609
-46.088074 1592.0477 791 4293254610
-44.943119 1592.1688 792 4290031009
-43.728439 1592.1688 792 4290685869
-42.57798 1592.2899 793 4293054417
-41.361469 1592.2899 793 4292791229
-40.205505 1592.411 794 4292396727
-39.104588 1592.6532 796 4291542961
-37.768806 1592.411 794 4291542961
-36.715595 1592.7743 797 4291541416
-35.651375 1593.1376 800 4291541416
-34.42202 1593.1376 800 4291475110
-33.242203 1593.2587 801 4291540903
-32.011009 1593.2587 801 4291343270
-30.779816 1593.2587 801 4291277477
-29.592661 1593.3798 802 4291277477
-28.359632 1593.3798 802 4291738028
-27.247707 1593.7432 805 4291278499
-26.047707 1593.8643 806 4291409828
-24.880733 1594.1064 808 4291409063
