# .PCD v0.7 - Point Cloud Data file format
VERSION 0.7
FIELDS x y z rgb
SIZE 4 4 4 4
TYPE F F F U
COUNT 1 1 1 1
WIDTH 1363
HEIGHT 1
VIEWPOINT 0 0 0 1 0 0 0
POINTS 1363
DATA ascii
-27.768806 1571.1597 788 4294964713
-26.68257 1571.4293 791 4294569957
-25.585321 1571.6991 794 4294307041
127.73395 1571.6091 793 4291477209
128.75597 1571.5193 792 4291477733
128.989 1571.0697 787 4291411684
129.79817 1570.8899 785 4290623190
131 1570.8899 785 4289636038
132 1570.8 784 4290228150
133.2 1570.8 784 4294307316
134.19449 1570.7101 783 4294966271
135.39265 1570.7101 783 4294768383
136.59082 1570.7101 783 4294637049
137.57799 1570.6202 782 4294702842
138.34862 1570.4404 780 4294308597
139.54129 1570.4404 780 4293848046
140.51743 1570.3505 779 4293979633
141.70825 1570.3505 779 4294506233
142.89908 1570.3505 779 4294966519
144.0899 1570.3505 779 4294967290
145.28073 1570.3505 779 4294966519
145.79449 1570.0807 776 4294966519
146.52477 1569.9009 774 4294966519
147.70642 1569.9009 774 4294966261
148.65688 1569.811 773 4294966015
149.8367 1569.811 773 4292202454
150.78165 1569.7211 772 4289110435
151.95964 1569.7211 772 4278190080
152.89908 1569.6312 771 4278650381
154.07523 1569.6312 771 4280624171
155.00917 1569.5413 770 4280623421
156.18349 1569.5413 770 4281741646
-56.102753 1568.1028 767 4294967295
-54.933945 1568.1028 767 4294967295
-53.765137 1568.1028 767 4294967295
-52.678898 1568.1908 768 4294967295
-51.427525 1568.1028 767 4294967295
-50.57431 1568.4551 771 4294967295
-49.398167 1568.4551 771 4294967295
-48.222019 1568.4551 771 4294967295
-47.192661 1568.6312 773 4294967294
-46.012844 1568.6312 773 4292466897
-44.902752 1568.7192 774 4293188817
-43.85688 1568.8954 776 4294439141
-42.671558 1568.8954 776 4294701799
-41.48624 1568.8954 776 4294569957
-40.363304 1568.9835 777 4294240213
-39.236698 1569.0715 778 4294437848
-38.047707 1569.0715 778 4294634205
-36.858715 1569.0715 778 4294634205
-35.669724 1569.0715 778 4294831066
-34.427525 1568.9835 777 4294963166
-33.49725 1569.4238 782 4294634203
-32.300919 1569.4238 782 4294963168
-31.247707 1569.6881 785 4294832361
-30.045872 1569.6881 785 4294967288
-28.844036 1569.6881 785 4294967295
-27.726606 1569.8643 787 4294966521
-26.521101 1569.8643 787 4294176746
-25.315596 1569.8643 787 4293848037
127.54128 1570.3046 792 4291741923
128.56146 1570.2166 791 4292464626
128.59633 1569.6881 785 4291872489
129.60001 1569.6 784 4290624721
130.8 1569.6 784 4289572033
132 1569.6 784 4290228930
132.99634 1569.512 783 4294439679
134.19449 1569.512 783 4294966015
135.18532 1569.4238 782 4294636797
135.9633 1569.2477 780 4294505206
137.15596 1569.2477 780 4294571256
138.13577 1569.1597 779 4294374644
139.3266 1569.1597 779 4293782251
140.51743 1569.1597 779 4293979887
141.48991 1569.0715 778 4294900989
142.45871 1568.9835 777 4294966763
143.64587 1568.9835 777 4294967282
144.60918 1568.8954 776 4294967280
145.79449 1568.8954 776 4294967279
146.52477 1568.7192 774 4294967278
147.47707 1568.6312 773 4294967284
148.42569 1568.5431 772 4294901502
149.60367 1568.5431 772 4293256677
150.54678 1568.4551 771 4289507521
151.72293 1568.4551 771 4278651676
152.89908 1568.4551 771 4278190093
153.83487 1568.3669 770 4280363062
155.00917 1568.3669 770 4280557874
156.18349 1568.3669 770 4279899944
-56.102753 1566.934 767 4294967295
-54.933945 1566.934 767 4294967295
-53.765137 1566.934 767 4294967295
-52.596329 1566.934 767 4294967295
-51.427525 1566.934 767 4294967295
-50.258717 1566.934 767 4294967295
-49.321102 1567.1926 770 4294967295
-48.14679 1567.1926 770 4294967295
-47.119267 1567.3651 772 4294967295
-45.941284 1567.3651 772 4292401104
-44.763302 1567.3651 772 4292991958
-43.7211 1567.5376 774 4294965748
-42.539448 1567.5376 774 4294965741
-41.3578 1567.5376 774 4294967026
-40.300919 1567.7101 776 4294964968
-39.115597 1567.7101 776 4294766818
-37.988991 1567.7964 777 4294701545
-36.801834 1567.7964 777 4294504166
-35.614677 1567.7964 777 4294437594
-34.427525 1567.7964 777 4294964195
-33.394497 1568.0551 780 4294832354
-32.300919 1568.2275 782 4294967282
-31.200001 1568.4 784 4294967295
-30.045872 1568.4862 785 4294967295
-28.844036 1568.4862 785 4294967295
-27.726606 1568.6587 787 4294967295
-26.521101 1568.6587 787 4294966005
-25.315596 1568.6587 787 4294307818
-24.036697 1568.4862 785 4294373348
126.13578 1569.0037 791 4293715704
127.34863 1569.0037 791 4294768639
128.17247 1568.8312 789 4294702590
128.59633 1568.4862 785 4291741905
129.60001 1568.4 784 4290491849
130.60001 1568.3137 783 4289834176
131.79817 1568.3137 783 4290623438
132.79266 1568.2275 782 4294966783
133.57799 1568.0551 780 4294967039
134.77065 1568.0551 780 4294505206
135.75414 1567.9688 779 4294505460
136.94496 1567.9688 779 4294571254
138.13577 1567.9688 779 4294374129
139.11192 1567.8826 778 4293781992
140.30092 1567.8826 778 4293914353
141.27156 1567.7964 777 4294967295
142.23853 1567.7101 776 4294967280
143.42386 1567.7101 776 4294967282
144.60918 1567.7101 776 4294967270
145.34312 1567.5376 774 4294967255
146.29724 1567.4514 773 4294967235
147.24771 1567.3651 772 4294967252
148.42569 1567.3651 772 4294967295
149.37064 1567.2789 771 4293782242
150.54678 1567.2789 771 4291938764
151.72293 1567.2789 771 4280951589
152.66055 1567.1926 770 4278190112
153.83487 1567.1926 770 4280426054
154.52477 1567.0201 768 4280426288
155.69542 1567.0201 768 4278584084
-54.933945 1565.7651 767 4294967295
-53.765137 1565.7651 767 4294967295
-52.596329 1565.7651 767 4294967295
-51.427525 1565.7651 767 4294967295
-50.337616 1565.8495 768 4294967295
-49.166973 1565.8495 768 4294967295
-48.14679 1566.0183 770 4294967295
-47.045872 1566.1028 771 4294967295
-45.869724 1566.1028 771 4292532690
-44.693577 1566.1028 771 4292925648
-43.58532 1566.1871 772 4294833645
-42.473396 1566.2716 773 4294966514
-41.293579 1566.2716 773 4294967287
-40.113762 1566.2716 773 4294966520
-38.994495 1566.356 774 4294833649
-37.930275 1566.5248 776 4294439139
-36.801834 1566.6091 777 4294241759
-35.614677 1566.6091 777 4294108624
-34.374313 1566.5248 776 4294898397
-33.291744 1566.6936 778 4294766818
-32.152294 1566.778 779 4294967295
-31.009174 1566.8624 780 4294967295
-29.908257 1567.0312 782 4294967295
-28.799999 1567.2 784 4294967295
-27.642202 1567.2844 785 4294967295
-26.440367 1567.2844 785 4294967291
-25.238533 1567.2844 785 4294242795
-24.036697 1567.2844 785 4294373348
124.92294 1567.7908 791 4293188836
125.75413 1567.6221 789 4294176759
126.9633 1567.6221 789 4294966527
127.39449 1567.2844 785 4294966271
128.39999 1567.2 784 4291150036
129.40184 1567.1156 783 4290096830
130.39999 1567.0312 782 4290096830
131.59633 1567.0312 782 4290754506
132.38531 1566.8624 780 4294966271
133.37248 1566.778 779 4294967295
134.56331 1566.778 779 4294308599
135.54495 1566.6936 778 4294175985
136.73395 1566.6936 778 4294438900
137.92294 1566.6936 778 4294109421
138.89725 1566.6091 777 4293977836
140.0844 1566.6091 777 4293717232
141.27156 1566.6091 777 4294967295
142.23853 1566.5248 776 4294967287
142.97981 1566.356 774 4294967287
144.16147 1566.356 774 4294967271
145.11743 1566.2716 773 4293389505
146.06972 1566.1871 772 4293258392
147.24771 1566.1871 772 4294967229
148.19449 1566.1028 771 4294967293
149.37064 1566.1028 771 4294046697
150.31192 1566.0183 770 4291873754
151.48624 1566.0183 770 4282136390
152.18349 1565.8495 768 4279110428
153.35413 1565.8495 768 4280229166
154.52477 1565.8495 768 4280096823
155.69542 1565.8495 768 4278190104
-53.765137 1564.5963 767 4294967295
-52.596329 1564.5963 767 4294967295
-51.427525 1564.5963 767 4294967295
-50.258717 1564.5963 767 4294967295
-49.089909 1564.5963 767 4294967295
-47.99633 1564.679 768 4294967295
-46.972477 1564.844 770 4294967295
-45.869724 1564.9266 771 4293454306
-44.693577 1564.9266 771 4292664288
-43.517429 1564.9266 771 4294374906
-42.341286 1564.9266 771 4294965744
-41.229359 1565.0092 772 4294967295
-40.113762 1565.0918 773 4294967295
-38.933945 1565.0918 773 4294965748
-37.812843 1565.1743 774 4294701797
-36.744953 1565.3395 776 4294965226
-35.559631 1565.3395 776 4294832867
-34.374313 1565.3395 776 4294965225
-33.240368 1565.422 777 4294833897
-32.102753 1565.5046 778 4294967295
-30.961468 1565.5872 779 4294967295
-29.816513 1565.6697 780 4294967295
-28.711927 1565.8348 782 4294967295
-27.557798 1565.9175 783 4294967295
-26.4 1566 784 4294966776
-25.200001 1566 784 4294176746
-24 1566 784 4294636517
124.54495 1566.4128 789 4294967295
125.5633 1566.3303 788 4294967295
126.19266 1566.0825 785 4294967295
127.2 1566 784 4294967039
128.20367 1565.9175 783 4290623690
129.40184 1565.9175 783 4289440696
130 1565.6697 780 4289901247
131.19266 1565.6697 780 4291477965
132.18166 1565.5872 779 4294966271
133.16698 1565.5046 778 4294966527
134.35596 1565.5046 778 4294373625
135.33578 1565.422 777 4294109938
136.52293 1565.422 777 4294175731
137.49725 1565.3395 776 4294175731
138.68257 1565.3395 776 4294044144
139.86789 1565.3395 776 4293717232
141.05321 1565.3395 776 4294967295
141.79817 1565.1743 774 4294967263
142.7578 1565.0918 773 4294967264
143.93762 1565.0918 773 4294967252
144.89174 1565.0092 772 4293454767
145.84221 1564.9266 771 4293521854
147.01834 1564.9266 771 4294967264
147.9633 1564.844 770 4294967284
149.13762 1564.844 770 4294374881
150.31192 1564.844 770 4292662241
151.01285 1564.679 768 4283451222
152.18349 1564.679 768 4279635480
153.35413 1564.679 768 4280161824
154.52477 1564.679 768 4280426306
155.45137 1564.5963 767 4278190108
-52.596329 1563.4275 767 4294967295
-51.34679 1563.3468 766 4294967295
-50.179817 1563.3468 766 4294967295
-49.012844 1563.3468 766 4294967295
-47.921101 1563.4275 767 4294967295
-46.972477 1563.6697 770 4294967295
-45.798164 1563.6697 770 4293322722
-44.623852 1563.6697 770 4292728788
-43.449543 1563.6697 770 4293847013
-42.341286 1563.7505 771 4294964717
-41.165138 1563.7505 771 4294967295
-40.051376 1563.8312 772 4294967295
-38.873394 1563.8312 772 4294966263
-37.754128 1563.9119 773 4294569696
-36.631191 1563.9927 774 4294964711
-35.559631 1564.1542 776 4294766818
-34.374313 1564.1542 776 4294832867
-33.188992 1564.1542 776 4294570990
-32.053211 1564.2349 777 4294967295
-30.866055 1564.2349 777 4294967295
-29.724771 1564.3156 778 4294967295
-28.579817 1564.3964 779 4294967295
-27.515596 1564.6385 782 4294967295
-26.4 1564.8 784 4294967295
-25.161469 1564.7192 783 4294440436
-24 1564.8 784 4294702310
-22.904587 1565.0422 787 4294373346
123.33578 1565.2036 789 4294967295
124.35596 1565.1229 788 4294967295
124.99083 1564.8807 785 4294967295
126 1564.8 784 4294967295
127.0055 1564.7192 783 4294704639
128.00734 1564.6385 782 4290164935
128.80734 1564.4771 780 4289439400
129.8 1564.3964 779 4290426295
130.99083 1564.3964 779 4292333277
131.97798 1564.3156 778 4294966271
133.16698 1564.3156 778 4294965759
134.14862 1564.2349 777 4294242293
135.1266 1564.1542 776 4293716460
136.31192 1564.1542 776 4294045682
137.07156 1563.9927 774 4294242291
138.2532 1563.9927 774 4293978862
139.43486 1563.9927 774 4293453804
140.39816 1563.9119 773 4294901247
141.57799 1563.9119 773 4294967277
142.53578 1563.8312 772 4294967291
143.48991 1563.7505 771 4294967280
144.66606 1563.7505 771 4294967264
145.61469 1563.6697 770 4294967269
146.78899 1563.6697 770 4294967275
147.9633 1563.6697 770 4294967294
148.67155 1563.5083 768 4294177511
149.84221 1563.5083 768 4293188067
150.77615 1563.4275 767 4284042841
151.94496 1563.4275 767 4280095529
153.11375 1563.4275 767 4280029735
154.28256 1563.4275 767 4280359993
155.45137 1563.4275 767 4278386716
-52.51376 1562.1798 766 4294967295
-51.266056 1562.101 765 4294967295
-50.100918 1562.101 765 4294967295
-48.93578 1562.101 765 4294967295
-47.845871 1562.1798 766 4294967295
-46.752293 1562.2587 767 4294967295
-45.655045 1562.3376 768 4294440686
-44.484406 1562.3376 768 4292927458
-43.313763 1562.3376 768 4292730335
-42.14312 1562.3376 768 4294439404
-41.100918 1562.4954 770 4294967295
-39.988991 1562.5743 771 4294967293
-38.873394 1562.6532 772 4294966517
-37.695412 1562.6532 772 4294965227
-36.57431 1562.7321 773 4294965741
-35.449543 1562.811 774 4294964713
-34.267891 1562.811 774 4294964200
-33.086239 1562.811 774 4294768637
-31.904587 1562.811 774 4294967295
-30.818348 1562.9688 776 4294967295
-29.6789 1563.0477 777 4294967295
-28.53578 1563.1266 778 4294967295
-27.431192 1563.2844 780 4294967295
-26.319265 1563.4423 782 4294967295
-25.122936 1563.4423 782 4294901502
-23.963303 1563.5211 783 4294571492
-22.765137 1563.5211 783 4294045148
122.96147 1563.8367 787 4294967295
123.78899 1563.679 785 4294967295
124.99083 1563.679 785 4294967295
126 1563.6 784 4294440951
126.81101 1563.4423 782 4294046195
127.61468 1563.2844 780 4289769394
128.80734 1563.2844 780 4288719025
129.8 1563.2056 779 4291021779
130.78899 1563.1266 778 4292465130
131.77431 1563.0477 777 4294966271
132.96147 1563.0477 777 4294833912
133.94128 1562.9688 776 4293846761
134.70825 1562.811 774 4293716199
135.88991 1562.811 774 4294176750
137.07156 1562.811 774 4294176748
138.03853 1562.7321 773 4293847783
139.00183 1562.6532 772 4293584877
140.17981 1562.6532 772 4294045428
141.13762 1562.5743 771 4294967276
142.31377 1562.5743 771 4294967278
143.26605 1562.4954 770 4294967270
144.44037 1562.4954 770 4294834912
145.61469 1562.4954 770 4294769639
146.33028 1562.3376 768 4294966761
147.50092 1562.3376 768 4294966759
148.43854 1562.2587 767 4293913558
149.37248 1562.1798 766 4293188065
150.53944 1562.1798 766 4284569439
151.4679 1562.101 765 4280292149
152.8734 1562.1798 766 4279568683
154.04036 1562.1798 766 4279899690
-51.185322 1560.8588 764 4294967295
-49.86422 1560.7046 762 4294967295
-48.858715 1560.8588 764 4294967295
-47.845871 1561.0128 766 4294967295
-46.678898 1561.0128 766 4294967295
-45.583485 1561.09 767 4294967295
-44.41468 1561.09 767 4293585644
-43.245872 1561.09 767 4292532700
-42.14312 1561.167 768 4294241759
-40.972477 1561.167 768 4294967295
-39.926605 1561.321 770 4294967292
-38.812843 1561.3982 771 4294966774
-37.636696 1561.3982 771 4294965484
-36.517429 1561.4752 772 4294965998
-35.394497 1561.5522 773 4294965225
-34.21468 1561.5522 773 4294965225
-33.034863 1561.5522 773 4294967294
-31.904587 1561.6294 774 4294967295
-30.818348 1561.7834 776 4294967295
-29.6789 1561.8606 777 4294967295
-28.53578 1561.9376 778 4294967295
-27.38899 1562.0146 779 4294967295
-26.238533 1562.0918 780 4294967295
-25.045872 1562.0918 780 4294967295
-23.963303 1562.323 783 4294571758
-22.799999 1562.4 784 4294045157
-21.633028 1562.4771 785 4294307303
122.96147 1562.6312 787 4294967295
123.78899 1562.4771 785 4294967295
124.8 1562.4 784 4294967295
125.80734 1562.323 783 4293652721
126.81101 1562.2458 782 4292072421
127.61468 1562.0918 780 4289374651
128.60918 1562.0146 779 4288717198
129.60001 1561.9376 778 4292401606
130.58716 1561.8606 777 4293386480
131.57065 1561.7834 776 4294966015
132.75597 1561.7834 776 4294833658
133.52661 1561.6294 774 4293912556
134.49908 1561.5522 773 4293386210
135.67889 1561.5522 773 4293715432
136.64587 1561.4752 772 4293715432
137.82385 1561.4752 772 4293978603
138.78532 1561.3982 771 4293715693
139.96147 1561.3982 771 4293847535
141.13762 1561.3982 771 4293913060
142.09174 1561.321 770 4293978853
143.26605 1561.321 770 4293913310
143.989 1561.167 768 4293847517
145.15964 1561.167 768 4293847267
146.33028 1561.167 768 4293518302
147.26973 1561.09 767 4293255131
148.20551 1561.0128 766 4293978853
149.13762 1560.9358 765 4293319656
149.59267 1560.7046 762 4285556082
150.75229 1560.7046 762 4280553527
152.63303 1560.9358 765 4279369764
-51.023853 1559.5449 762 4294967295
-49.86422 1559.5449 762 4294967293
-48.704586 1559.5449 762 4294967290
-47.695412 1559.6954 764 4294967295
-46.678898 1559.8458 766 4294967294
-45.583485 1559.9211 767 4294967295
-44.41468 1559.9211 767 4294177783
-43.245872 1559.9211 767 4292137944
-42.077065 1559.9211 767 4293057501
-40.972477 1559.9963 768 4294967295
-39.801834 1559.9963 768 4294967291
-38.752293 1560.1467 770 4294966516
-37.460552 1559.9963 768 4294967028
-36.403671 1560.1467 770 4294967293
-35.284405 1560.222 771 4294967281
-34.161469 1560.2972 772 4294967274
-32.983486 1560.2972 772 4294967025
-31.855045 1560.3724 773 4294967295
-30.722937 1560.4478 774 4294967295
-29.633028 1560.5981 776 4294967295
-28.491743 1560.6733 777 4294967295
-27.346788 1560.7487 778 4294967295
-26.157799 1560.7487 778 4294967295
-25.045872 1560.899 780 4294967295
-23.926605 1561.0496 782 4294967292
-22.834862 1561.2753 785 4294308334
122.4 1561.2 784 4294967295
123.41101 1561.1248 783 4294638845
124.60918 1561.1248 783 4294836223
125.22935 1560.899 780 4292928491
126.42202 1560.899 780 4292072417
127.41835 1560.8239 779 4288782767
128.41101 1560.7487 778 4288519831
129.39999 1560.6733 777 4292993755
130.58716 1560.6733 777 4294571002
131.57065 1560.5981 776 4294966271
132.34496 1560.4478 774 4294702844
133.31926 1560.3724 773 4293978864
134.2899 1560.2972 772 4293715434
135.4679 1560.2972 772 4293715434
136.43303 1560.222 771 4293846763
137.60918 1560.222 771 4294570742
138.78532 1560.222 771 4293715693
139.74312 1560.1467 770 4293584107
140.91743 1560.1467 770 4293650152
142.09174 1560.1467 770 4293650152
142.81834 1559.9963 768 4293518052
143.76331 1559.9211 767 4293649638
144.93211 1559.9211 767 4293451753
145.87157 1559.8458 766 4293254631
147.03853 1559.8458 766 4293386210
147.73946 1559.6954 764 4294175983
148.43303 1559.5449 762 4293517037
149.59267 1559.5449 762 4286674308
150.75229 1559.5449 762 4281274699
151.91193 1559.5449 762 4279500848
-50.943119 1558.3119 761 4294967284
-49.78532 1558.3119 761 4294967288
-48.704586 1558.3854 762 4294967293
-47.695412 1558.5321 764 4294967293
-46.532108 1558.5321 764 4294967288
-45.368809 1558.5321 764 4294967295
-44.205505 1558.5321 764 4294901247
-43.110092 1558.6055 765 4292137942
-42.011009 1558.679 766 4292990150
-40.844036 1558.679 766 4294967285
-39.739449 1558.7523 767 4294967294
-38.570641 1558.7523 767 4294967032
-37.401836 1558.7523 767 4294967029
-36.289909 1558.8257 768 4294967295
-35.229359 1558.9725 770 4294967295
-34.055046 1558.9725 770 4294967295
-32.93211 1559.0459 771 4294966253
-31.805504 1559.1193 772 4294967294
-30.627523 1559.1193 772 4294967295
-29.541285 1559.2661 774 4294967295
-28.359632 1559.2661 774 4294967295
-27.262384 1559.4128 776 4294967295
-26.117432 1559.4862 777 4294967295
-24.930275 1559.4862 777 4294967295
-23.85321 1559.7064 780 4294967295
-22.730276 1559.8533 782 4294768885
121.2 1560 784 4294967295
122.21284 1559.9266 783 4294179071
123.22202 1559.8533 782 4294179071
124.0367 1559.7064 780 4293784063
125.0367 1559.6331 779 4292862964
126.22752 1559.6331 779 4292005604
127.22202 1559.5596 778 4288913333
128.21284 1559.4862 777 4288977813
129.2 1559.4128 776 4294175716
130.38531 1559.4128 776 4294768895
131.1633 1559.2661 774 4294505981
132.13945 1559.1926 773 4294440184
133.11192 1559.1193 772 4293848046
134.08073 1559.0459 771 4293781740
135.25688 1559.0459 771 4293715947
136.43303 1559.0459 771 4293650154
137.3945 1558.9725 770 4293650154
138.5688 1558.9725 770 4293650152
139.74312 1558.9725 770 4293321187
140.47707 1558.8257 768 4293386210
141.64771 1558.8257 768 4293386210
142.5945 1558.7523 767 4292991195
143.53761 1558.679 766 4293254110
144.47707 1558.6055 765 4293253345
145.6422 1558.6055 765 4293582310
146.57614 1558.5321 764 4293386464
147.27339 1558.3854 762 4293912808
148.19817 1558.3119 761 4293583595
149.35596 1558.3119 761 4287135882
150.51376 1558.3119 761 4284495962
-49.78532 1557.1542 761 4294967295
-48.704586 1557.2257 762 4294967295
-47.544952 1557.2257 762 4294967295
-46.385323 1557.2257 762 4294967295
-45.225689 1557.2257 762 4294967295
-44.205505 1557.3688 764 4294967295
-43.042202 1557.3688 764 4293454056
-41.944954 1557.4404 765 4293057751
-40.844036 1557.512 766 4294439404
-39.677063 1557.512 766 4294967290
-38.51009 1557.512 766 4294967295
-37.343121 1557.512 766 4294967295
-36.289909 1557.655 768 4294967295
-35.119267 1557.655 768 4294967295
-33.948624 1557.655 768 4294967295
-32.93211 1557.8698 771 4294967033
-31.755962 1557.8698 771 4294966005
-30.579817 1557.8698 771 4294967294
-29.495413 1558.0128 773 4294967295
-28.315596 1558.0128 773 4294967295
-27.177982 1558.0844 774 4294967295
-26.077065 1558.2275 776 4294967295
-24.891743 1558.2275 776 4294967295
-23.779816 1558.3706 778 4294967295
-22.660551 1558.5138 780 4294967292
-21.533945 1558.6569 782 4294702058
121.2 1558.8 784 4292599036
122.02569 1558.6569 782 4292599538
122.84404 1558.5138 780 4292797173
123.84587 1558.4423 779 4293322745
124.84404 1558.3706 778 4292994036
126.03303 1558.3706 778 4292071651
127.02569 1558.2991 777 4288518829
128.01468 1558.2275 776 4289374379
128.8 1558.0844 774 4294308597
129.98166 1558.0844 774 4294703353
130.95964 1558.0128 773 4294308595
131.72844 1557.8698 771 4294308336
132.90459 1557.8698 771 4293781992
134.08073 1557.8698 771 4293846761
135.04587 1557.7982 770 4293846761
136.22018 1557.7982 770 4293715432
137.3945 1557.7982 770 4293649638
138.13577 1557.655 768 4293518050
139.08807 1557.5835 767 4293386464
140.25688 1557.5835 767 4293452259
141.42569 1557.5835 767 4293583845
142.37064 1557.512 766 4293254881
143.31192 1557.4404 765 4293123294
144.47707 1557.4404 765 4293188836
145.41284 1557.3688 764 4293254629
146.11375 1557.2257 762 4293255131
147.04036 1557.1542 761 4293715682
148.19817 1557.1542 761 4293517802
149.11926 1557.0825 760 4288912292
150.27522 1557.0825 760 4283777399
-47.544952 1556.066 762 4294967295
-46.385323 1556.066 762 4294967295
-45.225689 1556.066 762 4294967295
-44.066055 1556.066 762 4294967295
-43.042202 1556.2056 764 4294967295
-41.944954 1556.2753 765 4293583591
-40.844036 1556.345 766 4293254883
-39.614677 1556.2753 765 4294965734
-38.51009 1556.345 766 4294967285
-37.343121 1556.345 766 4294967292
-36.176147 1556.345 766 4294967295
-35.06422 1556.4147 767 4294967295
-33.895412 1556.4147 767 4294967295
-32.777981 1556.4844 768 4294967295
-31.706423 1556.6239 770 4294967294
-30.53211 1556.6239 770 4294967287
-29.449541 1556.7633 772 4294967295
-28.271559 1556.7633 772 4294967295
-27.13578 1556.833 773 4294967295
-26.117432 1557.1119 777 4294967295
-24.930275 1557.1119 777 4294967295
-23.74312 1557.1119 777 4294967295
-22.590826 1557.1816 778 4294967295
-21.401834 1557.1816 778 4294834932
119.08257 1557.2513 779 4292138987
120.27339 1557.2513 779 4292336622
121.46422 1557.2513 779 4292402417
122.46606 1557.1816 778 4292797175
123.46422 1557.1119 777 4293322234
124.45872 1557.0422 776 4292006374
125.64404 1557.0422 776 4290953924
126.82936 1557.0422 776 4289703601
127.61835 1556.9027 774 4290229695
128.8 1556.9027 774 4293651187
129.77982 1556.833 773 4294044655
130.75597 1556.7633 772 4293847533
131.72844 1556.6936 771 4293782251
132.69725 1556.6239 770 4293519336
133.87157 1556.6239 770 4293057249
134.62386 1556.4844 768 4293188836
135.79449 1556.4844 768 4293648868
136.96513 1556.4844 768 4293517539
137.91927 1556.4147 767 4293123294
138.86972 1556.345 766 4293452259
140.0367 1556.345 766 4293518052
141.20367 1556.345 766 4293649638
142.14679 1556.2753 765 4293387234
143.08624 1556.2056 764 4293189599
143.79449 1556.066 762 4292927460
144.72478 1555.9963 761 4292993253
145.88257 1555.9963 761 4293189601
147.04036 1555.9963 761 4293584358
147.9633 1555.9266 760 4293517802
149.11926 1555.9266 760 4289767601
150.27522 1555.9266 760 4285752702
-47.544952 1554.9064 762 4294967295
-46.385323 1554.9064 762 4294967295
-45.225689 1554.9064 762 4294967295
-44.066055 1554.9064 762 4294967295
-42.906422 1554.9064 762 4294967295
-41.878899 1555.0422 764 4294967295
-40.779816 1555.1101 765 4292796128
-39.614677 1555.1101 765 4293847004
-38.449543 1555.1101 765 4294967295
-37.284405 1555.1101 765 4294967295
-36.176147 1555.178 766 4294967295
-35.009174 1555.178 766 4294967295
-33.895412 1555.2458 767 4294967295
-32.726604 1555.2458 767 4294967295
-31.60734 1555.3137 768 4294967295
-30.436697 1555.3137 768 4294967292
-29.357798 1555.4496 770 4294967295
-28.227524 1555.5175 771 4294967295
-27.093578 1555.5853 772 4294967295
-25.915596 1555.5853 772 4294967295
-24.737616 1555.5853 772 4294967295
-23.706423 1555.8569 776 4294967295
-22.555964 1555.9248 777 4294967295
-21.368807 1555.9248 777 4294967295
-20.181652 1555.9248 777 4294045678
119.71743 1555.8569 776 4292665585
121.0899 1555.9248 777 4292929273
122.27706 1555.9248 777 4293718783
123.27339 1555.8569 776 4293520380
124.45872 1555.8569 776 4289770179
125.25504 1555.7211 774 4289441685
126.4367 1555.7211 774 4290625958
127.61835 1555.7211 774 4291281622
128.60001 1555.6532 773 4293452791
129.57799 1555.5853 772 4293518052
130.55229 1555.5175 771 4293386210
131.52293 1555.4496 770 4293452259
132.28256 1555.3137 768 4293518052
133.45322 1555.3137 768 4293253860
134.62386 1555.3137 768 4293253860
135.79449 1555.3137 768 4293517798
136.75046 1555.2458 767 4293452005
137.70276 1555.178 766 4293189601
138.86972 1555.178 766 4293321187
139.81651 1555.1101 765 4293254881
140.98166 1555.1101 765 4293123294
142.14679 1555.1101 765 4293058010
143.08624 1555.0422 764 4293189853
143.56697 1554.8385 761 4293123808
144.72478 1554.8385 761 4293123808
145.88257 1554.8385 761 4293255144
146.80734 1554.7706 760 4293584109
147.9633 1554.7706 760 4293254633
149.11926 1554.7706 760 4290886085
150.27522 1554.7706 760 4286937744
-47.168808 1553.4165 757 4294967295
-46.091743 1553.4825 758 4294967295
-44.939449 1553.4825 758 4294967295
-43.787155 1553.4825 758 4294967295
-42.634861 1553.4825 758 4294967295
-41.482571 1553.4825 758 4294967295
-40.715595 1553.8789 764 4292730333
-39.552292 1553.8789 764 4292398524
-38.449543 1553.9449 765 4294967284
-37.284405 1553.9449 765 4294967295
-36.119267 1553.9449 765 4294967295
-35.009174 1554.011 766 4294967295
-33.842201 1554.011 766 4294967295
-32.675228 1554.011 766 4294967295
-31.557798 1554.077 767 4294967295
-30.38899 1554.077 767 4294967294
-29.220184 1554.077 767 4294967295
-28.095413 1554.1431 768 4294967295
-27.009174 1554.2753 770 4294967295
-25.875229 1554.3413 771 4294967295
-24.699083 1554.3413 771 4294967295
-23.559633 1554.4073 772 4294967295
-22.416513 1554.4734 773 4294967295
-21.236698 1554.4734 773 4294967295
-20.181652 1554.7377 777 4294178033
-18.994495 1554.7377 777 4293978338
119.71743 1554.6715 776 4292995068
120.90276 1554.6715 776 4293454591
122.08807 1554.6715 776 4293849599
122.89175 1554.5394 774 4293652219
124.07339 1554.5394 774 4288980916
125.06055 1554.4734 773 4287465555
126.24036 1554.4734 773 4291676307
127.22202 1554.4073 772 4292530651
128.2 1554.3413 771 4293254631
129.17432 1554.2753 770 4293385184
130.34862 1554.2753 770 4293319390
131.11192 1554.1431 768 4293647590
132.28256 1554.1431 768 4293647590
133.45322 1554.1431 768 4293254629
134.41284 1554.077 767 4293517800
135.58165 1554.077 767 4293387497
136.53578 1554.011 766 4293255655
137.70276 1554.011 766 4293189349
138.65138 1553.9449 765 4293189349
139.59633 1553.8789 764 4293057760
140.75963 1553.8789 764 4292926431
141.92294 1553.8789 764 4292794330
142.40918 1553.6808 761 4293057501
143.33945 1553.6146 760 4293123296
144.49541 1553.6146 760 4293123296
145.65138 1553.6146 760 4292991202
146.80734 1553.6146 760 4293254631
147.72844 1553.5486 759 4293056999
148.88257 1553.5486 759 4291477711
-46.018349 1552.2661 757 4294966001
-44.867889 1552.2661 757 4294967288
-43.787155 1552.3303 758 4294967292
-42.634861 1552.3303 758 4294967295
-41.416515 1552.2661 757 4294967294
-40.715595 1552.7156 764 4293650654
-39.552292 1552.7156 764 4292334555
-38.449543 1552.7798 765 4293716208
-37.225689 1552.7156 764 4294966517
-36.119267 1552.7798 765 4294967295
-34.954128 1552.7798 765 4294967295
-33.78899 1552.7798 765 4294967295
-32.675228 1552.844 766 4294967295
-31.508257 1552.844 766 4294967295
-30.341284 1552.844 766 4294967295
-29.220184 1552.9082 767 4294967295
-28.051376 1552.9082 767 4294967295
-26.92477 1552.9725 768 4294967295
-25.834862 1553.101 770 4294967295
-24.699083 1553.1652 771 4294967295
-23.522936 1553.1652 771 4294967295
-22.381651 1553.2294 772 4294967295
-21.203671 1553.2294 772 4294967295
-20.150459 1553.4862 776 4294967292
-18.965137 1553.4862 776 4294439404
-17.779816 1553.4862 776 4293978853
-16.594496 1553.4862 776 4293978342
117.98165 1553.2936 773 4292731126
119.16147 1553.2936 773 4294967295
120.34129 1553.2936 773 4294967295
121.5211 1553.2936 773 4294966783
122.51009 1553.2294 772 4293783021
123.68807 1553.2294 772 4288782753
124.67156 1553.1652 771 4288715136
125.84771 1553.1652 771 4292136116
126.82569 1553.101 770 4293188317
128 1553.101 770 4293254110
128.77065 1552.9725 768 4293187806
129.94128 1552.9725 768 4293187806
131.11192 1552.9725 768 4293253608
131.86789 1552.844 766 4293385195
133.24403 1552.9082 767 4293254629
134.20183 1552.844 766 4293846765
135.3688 1552.844 766 4293518315
136.32111 1552.7798 765 4292926179
137.48624 1552.7798 765 4293056997
137.77798 1552.5229 761 4293056997
138.71559 1552.4587 760 4293057762
139.87157 1552.4587 760 4293518313
141.02753 1552.4587 760 4293057501
141.95779 1552.3945 759 4293123294
143.11192 1552.3945 759 4293057762
144.26605 1552.3945 759 4292926433
145.42018 1552.3945 759 4292991456
146.57431 1552.3945 759 4293188836
147.49358 1552.3303 758 4293122792
-45.871559 1550.9908 755 4294833899
-44.72477 1550.9908 755 4294967285
-43.71743 1551.1156 757 4294967290
-42.566971 1551.1156 757 4294967291
-41.284405 1550.9908 755 4294967029
-40.137615 1550.9908 755 4294373350
-39.427525 1551.4275 762 4292466132
-38.388992 1551.5522 764 4292268497
-37.108257 1551.4275 762 4294241757
-36.062386 1551.5522 764 4294967295
-34.899082 1551.5522 764 4294967295
-33.735779 1551.5522 764 4294967295
-32.572475 1551.5522 764 4294967295
-31.508257 1551.677 766 4294967295
-30.341284 1551.677 766 4294967295
-29.220184 1551.7395 767 4294967295
-28.051376 1551.7395 767 4294967295
-26.882568 1551.7395 767 4294967295
-25.754128 1551.8019 768 4294967295
-24.660551 1551.9266 770 4294967295
-23.486238 1551.9266 770 4294967295
-22.346788 1551.989 771 4294967295
-21.170643 1551.989 771 4294967295
-20.025688 1552.0514 772 4294967295
-18.877064 1552.1138 773 4294967290
-17.697248 1552.1138 773 4294110439
-16.517431 1552.1138 773 4293912547
116.62019 1552.0514 772 4292138979
117.98165 1552.1138 773 4292600060
119.16147 1552.1138 773 4294310655
120.15413 1552.0514 772 4293783551
121.33211 1552.0514 772 4292862718
122.31927 1551.989 771 4291940047
123.49541 1551.989 771 4288848033
124.47707 1551.9266 770 4289175439
125.65137 1551.9266 770 4292793798
126.42936 1551.8019 768 4293385186
127.6 1551.8019 768 4293187806
128.5688 1551.7395 767 4292991456
129.73761 1551.7395 767 4292991456
130.70091 1551.677 766 4292794080
131.66055 1551.6146 765 4292925409
132.82568 1551.6146 765 4292925663
133.99083 1551.6146 765 4292991456
134.94312 1551.5522 764 4292991456
135.46239 1551.3651 761 4292991456
136.62018 1551.3651 761 4292991454
137.55963 1551.3027 760 4292991454
138.71559 1551.3027 760 4292991456
139.64954 1551.2404 759 4293057249
140.80367 1551.2404 759 4293057247
141.73212 1551.178 758 4293123296
142.8844 1551.178 758 4293057762
144.0367 1551.178 758 4292926433
145.189 1551.178 758 4292860640
146.34128 1551.178 758 4293057762
147.25871 1551.1156 757 4293188586
-44.72477 1549.844 755 4294967030
-43.57798 1549.844 755 4294966510
-42.431194 1549.844 755 4294965738
-41.218349 1549.7834 754 4294965740
-40.073395 1549.7834 754 4294965997
-38.990826 1549.844 755 4293650152
-37.965137 1549.9651 757 4292400085
-37.049541 1550.2074 761 4292860636
-35.948624 1550.2679 762 4294967295
-34.899082 1550.389 764 4294967295
-33.735779 1550.389 764 4294967295
-32.572475 1550.389 764 4294967295
-31.458715 1550.4496 765 4294967295
-30.341284 1550.5101 766 4294967295
-29.174313 1550.5101 766 4294967295
-28.007339 1550.5101 766 4294967295
-26.882568 1550.5707 767 4294967295
-25.713762 1550.5707 767 4294967295
-24.583487 1550.6312 768 4294967295
-23.412844 1550.6312 768 4294967295
-22.311926 1550.7523 770 4294967295
-21.137615 1550.7523 770 4294967295
-19.994495 1550.8129 771 4294967295
-18.847706 1550.8734 772 4294967295
-17.669725 1550.8734 772 4294243054
-16.517431 1550.934 773 4293847267
-15.337615 1550.934 773 4294044646
115.80183 1550.9945 774 4290823379
116.62019 1550.8734 772 4291744481
117.79816 1550.8734 772 4293060607
118.97615 1550.8734 772 4294967295
119.96697 1550.8129 771 4293717759
121.14312 1550.8129 771 4288980677
122.31927 1550.8129 771 4288191895
123.49541 1550.8129 771 4288718239
124.47707 1550.7523 770 4289833140
125.25871 1550.6312 768 4292794082
126.23119 1550.5707 767 4292990171
127.4 1550.5707 767 4292661206
128.36697 1550.5101 766 4292792796
129.53395 1550.5101 766 4293055712
130.49541 1550.4496 765 4292794332
131.66055 1550.4496 765 4292991454
132.61652 1550.389 764 4292991456
133.77982 1550.389 764 4292794078
134.30458 1550.2074 761 4292662491
135.67706 1550.2679 762 4292596698
136.40367 1550.1467 760 4292531157
137.55963 1550.1467 760 4292794330
138.49541 1550.0862 759 4292794332
139.42752 1550.0256 758 4292728539
140.57982 1550.0256 758 4292925663
141.50642 1549.9651 757 4293254629
142.65688 1549.9651 757 4293123044
143.80734 1549.9651 757 4292925409
144.95779 1549.9651 757 4292925663
146.10826 1549.9651 757 4293057249
147.25871 1549.9651 757 4293057251
-44.65321 1548.6385 754 4294899442
-43.57798 1548.6973 755 4294767592
-42.363304 1548.6385 754 4294767592
-41.152294 1548.5798 753 4294964202
-40.009174 1548.5798 753 4294966258
-38.92844 1548.6385 754 4294637297
-37.844036 1548.6973 755 4292926935
-36.814678 1548.8147 757 4292202444
-35.7211 1548.8734 758 4294833908
-34.623852 1548.9321 759 4294967294
-33.629356 1549.1083 762 4294967295
-32.469727 1549.1083 762 4294967295
-31.409174 1549.2257 764 4294967295
-30.293577 1549.2844 765 4294967295
-29.128441 1549.2844 765 4294967295
-28.007339 1549.3431 766 4294967295
-26.840366 1549.3431 766 4294967295
-25.673395 1549.3431 766 4294967295
-24.544954 1549.4019 767 4294967295
-23.376146 1549.4019 767 4294967295
-22.20734 1549.4019 767 4294967295
-21.07156 1549.4606 768 4294967295
-19.900917 1549.4606 768 4294967295
-18.818348 1549.6367 771 4294967295
-17.642202 1549.6367 771 4294967295
-16.491743 1549.6954 772 4293979885
-15.313762 1549.6954 772 4293782505
114.62019 1549.8129 774 4289639123
115.80183 1549.8129 774 4288195018
116.62019 1549.6954 772 4291748095
117.61468 1549.6367 771 4293258239
118.79082 1549.6367 771 4293587199
119.77982 1549.578 770 4293452285
120.95413 1549.578 770 4288912824
122.12844 1549.578 770 4288190350
122.91743 1549.4606 768 4290493105
124.08807 1549.4606 768 4291215810
125.06239 1549.4019 767 4292466134
126.03303 1549.3431 766 4292727768
127.2 1549.3431 766 4292596183
128.16513 1549.2844 765 4292595413
129.33028 1549.2844 765 4292990171
130.2899 1549.2257 764 4292662745
131.03853 1549.1083 762 4292925661
131.989 1549.0496 761 4292925659
133.14679 1549.0496 761 4292794330
134.09174 1548.9908 760 4292728285
135.03302 1548.9321 759 4292530905
136.18715 1548.9321 759 4292136145
137.12294 1548.8734 758 4292530903
138.05504 1548.8147 757 4292596698
139.20551 1548.8147 757 4292794078
140.35596 1548.8147 757 4292662745
141.05504 1548.6973 755 4292991454
142.20183 1548.6973 755 4292793307
143.34862 1548.6973 755 4292727514
144.49541 1548.6973 755 4292596700
145.6422 1548.6973 755 4292925409
146.78899 1548.6973 755 4292860386
-43.508255 1547.4935 754 4294964717
-42.363304 1547.4935 754 4294898924
-41.152294 1547.4366 753 4294833645
-39.944954 1547.3798 752 4294966001
-38.866055 1547.4366 753 4294965487
-37.722935 1547.4366 753 4294636265
-36.579815 1547.4366 753 4293715945
-35.550457 1547.5504 755 4292663257
-34.51376 1547.6642 757 4294241509
-33.629356 1547.9486 762 4294967295
-32.469727 1547.9486 762 4294967295
-31.310091 1547.9486 762 4294967295
-30.245872 1548.0624 764 4294967295
-29.128441 1548.1193 765 4294967295
-27.963303 1548.1193 765 4294967295
-26.798164 1548.1193 765 4294967295
-25.633028 1548.1193 765 4294967295
-24.506422 1548.1761 766 4294967295
-23.339449 1548.1761 766 4294967295
-22.172478 1548.1761 766 4294967295
-21.038532 1548.233 767 4294967295
-19.869724 1548.233 767 4294967295
-18.78899 1548.4037 770 4294967295
-17.614679 1548.4037 770 4294967295
-16.466055 1548.4606 771 4294967039
-15.289908 1548.4606 771 4293848044
115.4422 1548.5175 772 4288916447
116.62019 1548.5175 772 4293587711
117.61468 1548.4606 771 4294637055
118.60551 1548.4037 770 4292136942
119.77982 1548.4037 770 4290556359
120.95413 1548.4037 770 4287332502
121.74679 1548.2899 768 4288978587
122.72477 1548.233 767 4292070602
123.69908 1548.1761 766 4292135886
124.86606 1548.1761 766 4292070093
125.83486 1548.1193 765 4292727505
127 1548.1193 765 4293319642
128.16513 1548.1193 765 4292990423
129.1266 1548.0624 764 4292990423
130.2899 1548.0624 764 4292793559
130.83119 1547.8917 761 4292596437
131.989 1547.8917 761 4292465362
132.93578 1547.8348 760 4292465362
133.87891 1547.778 759 4292727514
135.03302 1547.778 759 4292530392
135.97064 1547.7211 758 4292464858
136.90459 1547.6642 757 4292662493
138.05504 1547.6642 757 4292794078
139.20551 1547.6642 757 4293254629
139.90826 1547.5504 755 4293122011
141.05504 1547.5504 755 4293187804
142.20183 1547.5504 755 4292727768
143.34862 1547.5504 755 4292398804
144.49541 1547.5504 755 4292662491
145.6422 1547.5504 755 4292794078
146.55412 1547.4935 754 4292794591
-42.295414 1546.2936 753 4294965746
-41.152294 1546.2936 753 4294965744
-39.944954 1546.2385 752 4294966001
-38.803669 1546.2385 752 4294965745
-37.722935 1546.2936 753 4294966003
-36.579815 1546.2936 753 4294308849
-35.436699 1546.2936 753 4292664025
-34.293579 1546.2936 753 4292727755
-33.203671 1546.3486 754 4294967287
-32.212845 1546.5138 757 4294967295
-31.111927 1546.5688 758 4294967295
-30.150459 1546.7889 762 4294967295
-29.082569 1546.899 764 4294967295
-27.963303 1546.9541 765 4294967295
-26.798164 1546.9541 765 4294967295
-25.633028 1546.9541 765 4294967295
-24.46789 1546.9541 765 4294967295
-23.302752 1546.9541 765 4294967295
-22.137615 1546.9541 765 4294967295
-21.005505 1547.0092 766 4294967295
-19.838531 1547.0092 766 4294967295
-18.700918 1547.0642 767 4294967295
-17.53211 1547.0642 767 4294967295
-16.363302 1547.0642 767 4294967295
-15.194495 1547.0642 767 4294375158
-14.025688 1547.0642 767 4293780191
114.08624 1547.2844 771 4288587729
115.26238 1547.2844 771 4289441506
116.25688 1547.2294 770 4293718271
117.43119 1547.2294 770 4294637823
118.23486 1547.1193 768 4290492885
119.4055 1547.1193 768 4289568919
120.38715 1547.0642 767 4289371797
121.17431 1546.9541 765 4289635234
122.33945 1546.9541 765 4292266954
123.69908 1547.0092 766 4292199625
124.66972 1546.9541 765 4292397005
125.6367 1546.899 764 4292463565
126.8 1546.899 764 4292726738
127.55963 1546.7889 762 4292596183
128.51559 1546.7339 761 4292530390
129.6734 1546.7339 761 4292595413
130.62386 1546.679 760 4292661206
131.77982 1546.679 760 4292465110
132.72478 1546.6239 759 4292465110
133.66606 1546.5688 758 4292530903
134.81834 1546.5688 758 4292596696
135.75414 1546.5138 757 4292727514
136.90459 1546.5138 757 4292596185
137.61469 1546.4037 755 4292529622
138.76147 1546.4037 755 4292792794
139.90826 1546.4037 755 4292660693
140.82936 1546.3486 754 4292989657
141.97432 1546.3486 754 4293055964
143.11926 1546.3486 754 4292793048
144.26422 1546.3486 754 4292663005
145.40918 1546.3486 754 4292597211
-42.295414 1545.1505 753 4294967030
-41.152294 1545.1505 753 4294965999
-39.944954 1545.0973 752 4294965999
-38.866055 1545.1505 753 4294965745
-37.722935 1545.1505 753 4294965745
-36.579815 1545.1505 753 4294767856
-35.436699 1545.1505 753 4294438891
-34.293579 1545.1505 753 4293649890
-33.203671 1545.2036 754 4293452255
-32.110092 1545.2568 755 4294965742
-31.062386 1545.3633 757 4294967295
-29.959633 1545.4165 758 4294967295
-28.944954 1545.5762 761 4294967295
-27.831192 1545.6294 762 4294967295
-26.67156 1545.6294 762 4294967295
-25.592661 1545.7358 764 4294967295
-24.46789 1545.7889 765 4294967295
-23.302752 1545.7889 765 4294967295
-22.137615 1545.7889 765 4294967295
-20.972477 1545.7889 765 4294967295
-19.807339 1545.7889 765 4294967295
-18.67156 1545.8422 766 4294967295
-17.504587 1545.8422 766 4294967295
-16.337614 1545.8422 766 4294967295
-15.170642 1545.8422 766 4294967295
-14.00367 1545.8422 766 4294636534
112.25688 1546.2679 774 4288653007
112.9101 1546.1083 771 4288456148
114.08624 1546.1083 771 4289508579
115.08257 1546.0551 770 4290427882
116.25688 1546.0551 770 4292533503
117.06422 1545.9486 768 4292926696
117.86422 1545.8422 766 4288386980
119.03119 1545.8422 766 4288058237
120.00917 1545.7889 765 4290097564
120.98349 1545.7358 764 4291083448
121.76147 1545.6294 762 4292399051
122.72661 1545.5762 761 4292529610
123.88441 1545.5762 761 4292397768
125.0422 1545.5762 761 4292070091
126.2 1545.5762 761 4292004298
127.15596 1545.5229 760 4292135636
128.31192 1545.5229 760 4292398552
129.4679 1545.5229 760 4292529368
130.41652 1545.4697 759 4292661210
131.36147 1545.4165 758 4292530651
132.51376 1545.4165 758 4292991202
133.45322 1545.3633 757 4292596696
134.17432 1545.2568 755 4292596696
135.32111 1545.2568 755 4292596187
136.24954 1545.2036 754 4292596187
137.3945 1545.2036 754 4292596700
138.53944 1545.2036 754 4292596700
139.6844 1545.2036 754 4292529372
140.82936 1545.2036 754 4292792544
141.7468 1545.1505 753 4292859355
142.88991 1545.1505 753 4292859355
144.03302 1545.1505 753 4292662745
-41.086239 1543.9559 752 4294966258
-39.944954 1543.9559 752 4294966258
-38.803669 1543.9559 752 4294966003
-37.662384 1543.9559 752 4294965488
-36.521099 1543.9559 752 4294964461
-35.436699 1544.0073 753 4294965232
-34.293579 1544.0073 753 4293978853
-33.150459 1544.0073 753 4292926165
-32.058716 1544.0587 754 4293582801
-30.963303 1544.1101 755 4294967288
-29.911926 1544.2129 757 4294967295
-28.85321 1544.3156 759 4294967295
-27.74312 1544.3669 760 4294967295
-26.629358 1544.4183 761 4294967295
-25.47156 1544.4183 761 4294967295
-24.352293 1544.4697 762 4294967295
-23.266054 1544.5725 764 4294967295
-22.033028 1544.4697 762 4294967295
-20.972477 1544.6239 765 4294967295
-19.807339 1544.6239 765 4294967295
-18.642202 1544.6239 765 4294967295
-17.477064 1544.6239 765 4294967295
-16.311926 1544.6239 765 4294967295
-15.146789 1544.6239 765 4294967295
-13.981651 1544.6239 765 4294967295
111.07523 1545.0862 774 4289111761
112.25688 1545.0862 774 4289045968
112.73395 1544.8807 770 4288259278
113.90826 1544.8807 770 4289509601
114.72294 1544.778 768 4290691311
115.71193 1544.7266 767 4291348984
116.69725 1544.6752 766 4291479248
117.49358 1544.5725 764 4288189598
118.28257 1544.4697 762 4287334260
119.4422 1544.4697 762 4290689703
120.41101 1544.4183 761 4291674815
121.56881 1544.4183 761 4291872194
122.53211 1544.3669 760 4291806914
123.68807 1544.3669 760 4291806914
124.84404 1544.3669 760 4291543745
126 1544.3669 760 4291872709
126.95413 1544.3156 759 4292069841
127.90459 1544.2642 758 4292332756
129.05688 1544.2642 758 4292398292
130.00183 1544.2129 757 4292661208
131.1523 1544.2129 757 4292333527
131.88074 1544.1101 755 4292662491
133.02753 1544.1101 755 4292662745
133.95964 1544.0587 754 4292596696
135.10458 1544.0587 754 4292596700
136.03119 1544.0073 753 4292662493
137.17432 1544.0073 753 4292794078
138.31743 1544.0073 753 4292662491
139.46056 1544.0073 753 4292266965
140.60367 1544.0073 753 4292596187
141.7468 1544.0073 753 4292859355
142.88991 1544.0073 753 4292793561
144.03302 1544.0073 753 4292596696
-41.086239 1542.8147 752 4294967285
-39.944954 1542.8147 752 4294967290
-38.803669 1542.8147 752 4294966260
-37.662384 1542.8147 752 4294966003
-36.521099 1542.8147 752 4294966003
-35.379818 1542.8147 752 4294966516
-34.238533 1542.8147 752 4294965487
-33.044037 1542.7651 751 4294307301
-31.955963 1542.8147 752 4294109919
-30.86422 1542.8643 753 4294373348
-29.816513 1542.9633 755 4294967292
-28.761467 1543.0624 757 4294967295
-27.655046 1543.1119 758 4294967295
-26.502752 1543.1119 758 4294967295
-25.431192 1543.2111 760 4294967295
-24.275229 1543.2111 760 4294967295
-23.155964 1543.2605 761 4294967295
-22.033028 1543.3101 762 4294967295
-20.873394 1543.3101 762 4294967295
-19.713762 1543.3101 762 4294967295
-18.612844 1543.4092 764 4294967295
-17.449541 1543.4092 764 4294967295
-16.311926 1543.4587 765 4294967295
-15.122936 1543.4092 764 4294967295
-13.959633 1543.4092 764 4294967295
-12.755963 1543.3101 762 4294967295
109.0055 1543.3101 762 4288915925
110.51376 1543.4092 764 4289179353
111.67706 1543.4092 764 4289441489
112.84037 1543.4092 764 4291086571
114.00367 1543.4092 764 4291480811
115.16697 1543.4092 764 4289178057
116.33028 1543.4092 764 4288190098
117.12293 1543.3101 762 4288321684
118.28257 1543.3101 762 4289109151
119.25321 1543.2605 761 4291148991
120.41101 1543.2605 761 4291542711
121.37614 1543.2111 760 4291279796
122.53211 1543.2111 760 4291738809
123.49174 1543.1615 759 4292199360
124.64587 1543.1615 759 4291872448
125.6 1543.1119 758 4292135364
126.7523 1543.1119 758 4292266450
127.70092 1543.0624 757 4292529622
128.44037 1542.9633 755 4292398292
129.58716 1542.9633 755 4292990173
130.73395 1542.9633 755 4292530903
131.66972 1542.9138 754 4292596696
132.81468 1542.9138 754 4292662743
133.74495 1542.8643 753 4292662743
134.88808 1542.8643 753 4292662493
135.81285 1542.8147 752 4292662493
136.95413 1542.8147 752 4292728539
138.09541 1542.8147 752 4292728539
139.23669 1542.8147 752 4292662745
140.37798 1542.8147 752 4292596696
141.51927 1542.8147 752 4292596950
142.66055 1542.8147 752 4292596950
143.80183 1542.8147 752 4292596950
-39.880733 1541.6257 751 4294967288
-38.741283 1541.6257 751 4294966521
-37.601833 1541.6257 751 4294966007
-36.462387 1541.6257 751 4294966516
-35.322937 1541.6257 751 4294966516
-34.183487 1541.6257 751 4294966516
-32.990826 1541.578 750 4294965744
-31.904587 1541.6257 751 4293979364
-30.814678 1541.6733 752 4293387484
-29.673395 1541.6733 752 4294109921
-28.669725 1541.8165 755 4294967294
-27.61101 1541.9119 757 4294967295
-26.376146 1541.8165 755 4294967295
-25.350458 1541.9596 758 4294967295
-24.198166 1541.9596 758 4294967295
-23.082569 1542.0073 759 4294967295
-21.963303 1542.0551 760 4294967295
-20.807339 1542.0551 760 4294967295
-19.68257 1542.1028 761 4294967295
-18.524771 1542.1028 761 4294967295
-17.394495 1542.1505 762 4294967295
-16.234863 1542.1505 762 4294967295
-15.07523 1542.1505 762 4294967295
-13.915596 1542.1505 762 4294967295
-12.755963 1542.1505 762 4294967295
-11.596331 1542.1505 762 4294967295
-10.436697 1542.1505 762 4294769400
107.84587 1542.1505 762 4289112013
109.0055 1542.1505 762 4288718800
110.16514 1542.1505 762 4289113558
111.32477 1542.1505 762 4289835484
112.48441 1542.1505 762 4291348723
113.64404 1542.1505 762 4292005088
114.62202 1542.1028 761 4287728543
115.9633 1542.1505 762 4287527276
116.93761 1542.1028 761 4289895824
118.09541 1542.1028 761 4289701541
119.25321 1542.1028 761 4291017401
120.22018 1542.0551 760 4291344305
121.18349 1542.0073 759 4291673270
122.14312 1541.9596 758 4291738809
123.29541 1541.9596 758 4292067774
124.44771 1541.9596 758 4292331714
125.4 1541.9119 757 4292397507
126.55046 1541.9119 757 4292266189
127.70092 1541.9119 757 4292266189
128.44037 1541.8165 755 4292004048
129.58716 1541.8165 755 4292266963
130.73395 1541.8165 755 4292202194
131.88074 1541.8165 755 4292662745
132.38899 1541.6733 752 4292662743
133.53027 1541.6733 752 4292596950
134.67155 1541.6733 752 4292267734
135.81285 1541.6733 752 4292596698
136.95413 1541.6733 752 4292662745
138.09541 1541.6733 752 4292662745
139.23669 1541.6733 752 4292662745
140.37798 1541.6733 752 4292596696
141.51927 1541.6733 752 4292596696
142.88991 1541.7211 753 4292465110
-38.741283 1540.4862 751 4294967039
-37.541283 1540.4403 750 4294967295
-36.403671 1540.4403 750 4294967030
-35.266056 1540.4403 750 4294966516
-34.128441 1540.4403 750 4294967286
-32.937614 1540.3945 749 4294967294
-31.801834 1540.3945 749 4294967292
-30.765137 1540.4862 751 4294373609
-29.625689 1540.4862 751 4294307301
-28.53211 1540.5321 752 4294373350
-27.434862 1540.578 753 4294966005
-26.291742 1540.578 753 4294967295
