# .PCD v0.7 - Point Cloud Data file format
VERSION 0.7
FIELDS x y z rgb
SIZE 4 4 4 4
TYPE F F F U
COUNT 1 1 1 1
WIDTH 1366
HEIGHT 1
VIEWPOINT 0 0 0 1 0 0 0
POINTS 1366
DATA ascii
-47.730274 1598.8936 797 4292201409
-46.50642 1598.8936 797 4291938505
-45.35046 1599.0238 798 4292727764
-44.124771 1599.0238 798 4292793546
-43.027523 1599.2844 800 4292399044
-41.86055 1599.4147 801 4292002999
-40.689907 1599.5449 802 4291805619
-39.57431 1599.8055 804 4291739311
-38.337616 1599.8055 804 4291607725
-37.155964 1599.9358 805 4291607723
-35.917431 1599.9358 805 4291673516
-34.678898 1599.9358 805 4291673259
-33.48991 1600.066 806 4291673259
-32.249542 1600.066 806 4291869614
-31.100918 1600.3267 808 4291803821
-29.900917 1600.4569 809 4291803812
-28.697248 1600.5872 810 4292461485
-27.530275 1600.8477 812 4292264111
-26.278898 1600.8477 812 4292527282
-25.06422 1600.978 813 4292330408
-23.811008 1600.978 813 4292330408
124.61285 1601.3688 816 4285759400
125.50459 1601.1083 814 4286087077
126.57431 1600.978 813 4286152871
127.64037 1600.8477 812 4286153125
128.51376 1600.5872 810 4286153125
129.57065 1600.4569 809 4286349223
130.62386 1600.3267 808 4286086051
131.4789 1600.066 806 4286085283
132.52293 1599.9358 805 4287664315
133.76147 1599.9358 805 4289242802
135 1599.9358 805 4293716726
136.0367 1599.8055 804 4294703353
137.27339 1599.8055 804 4294703353
138.09908 1599.5449 802 4294966527
139.12477 1599.4147 801 4294966783
140.35596 1599.4147 801 4294835455
141.58716 1599.4147 801 4294572539
142.6055 1599.2844 800 4294243323
143.83487 1599.2844 800 4294045943
145.06422 1599.2844 800 4294111736
145.85689 1599.0238 798 4294967039
146.86238 1598.8936 797 4294835455
148.08624 1598.8936 797 4294967295
149.08624 1598.7633 796 4294967039
150.30826 1598.7633 796 4294637310
151.07523 1598.5028 794 4294374392
152.06422 1598.3724 793 4294769150
153.04955 1598.2422 792 4294834941
154.26422 1598.2422 792 4294834941
155.24403 1598.1119 791 4294769150
156.45688 1598.1119 791 4294834943
157.66972 1598.1119 791 4294834941
158.88257 1598.1119 791 4294440184
-60.733944 1597.0275 792 4291739341
-59.519264 1597.0275 792 4294239474
-58.304588 1597.0275 792 4294108895
-57.089909 1597.0275 792 4294043102
-55.959633 1597.156 793 4293647310
-54.743118 1597.156 793 4293976275
-53.526604 1597.156 793 4294041301
-52.388992 1597.2844 794 4294172886
-51.324772 1597.5413 796 4294173654
-50.102753 1597.5413 796 4294173654
-48.954128 1597.6697 797 4293319120
-47.730274 1597.6697 797 4292003516
-46.576145 1597.7982 798 4291806653
-45.28257 1597.6697 797 4293056720
-44.124771 1597.7982 798 4293056468
-43.027523 1598.0551 800 4292595917
-41.86055 1598.1835 801 4291806644
-40.689907 1598.3119 802 4291740595
-39.456882 1598.3119 802 4292002481
-38.337616 1598.5688 804 4291739565
-37.100918 1598.5688 804 4291673518
-35.917431 1598.6973 805 4291673518
-34.678898 1598.6973 805 4291673518
-33.440369 1598.6973 805 4291607725
-32.249542 1598.8257 806 4291869868
-31.009174 1598.8257 806 4291869868
-29.85688 1599.0825 808 4291803812
-28.655046 1599.2111 809 4292066727
-27.449541 1599.3395 810 4292066731
-26.278898 1599.5963 812 4292527282
125.50459 1599.8533 814 4286152873
126.57431 1599.7247 813 4286152873
127.64037 1599.5963 812 4286152871
128.51376 1599.3395 810 4286152871
129.57065 1599.2111 809 4286480809
130.62386 1599.0825 808 4286217380
131.4789 1598.8257 806 4286281890
132.52293 1598.6973 805 4287137456
133.76147 1598.6973 805 4288911790
134.8 1598.5688 804 4293714680
136.0367 1598.5688 804 4293914355
137.27339 1598.5688 804 4294704127
137.89359 1598.1835 801 4294834943
139.12477 1598.1835 801 4294966527
140.35596 1598.1835 801 4294967295
141.37614 1598.0551 800 4294704127
142.6055 1598.0551 800 4294243323
143.4055 1597.7982 798 4294177529
144.41467 1597.6697 797 4293913588
145.63853 1597.6697 797 4294703103
146.6422 1597.5413 796 4294572285
147.86423 1597.5413 796 4294704127
148.63853 1597.2844 794 4294901247
149.85689 1597.2844 794 4294572287
150.8477 1597.156 793 4294440186
151.83487 1597.0275 792 4294769150
153.04955 1597.0275 792 4294967295
154.03119 1596.899 791 4294704127
155.24403 1596.899 791 4294834943
156.45688 1596.899 791 4294966527
157.66972 1596.899 791 4294966271
158.40184 1596.6422 789 4294834430
159.61101 1596.6422 789 4294636797
-60.27523 1595.1798 787 4292199642
-59.159634 1595.3064 788 4294370810
-57.952293 1595.3064 788 4294239709
-56.831192 1595.433 789 4294173916
-55.622017 1595.433 789 4293911000
-54.412846 1595.433 789 4294305758
-53.445873 1595.8129 792 4294108374
-52.310093 1595.9395 793 4293713617
-51.170643 1596.066 794 4293910732
-50.102753 1596.3192 796 4294371283
-48.880733 1596.3192 796 4293254610
-47.658714 1596.3192 796 4291544249
-46.436699 1596.3192 796 4291938754
-45.28257 1596.4459 797 4293254614
-44.058716 1596.4459 797 4293122259
-42.899082 1596.5725 798 4292530121
-41.798164 1596.8257 800 4292003251
-40.629356 1596.9523 801 4292069044
-39.398167 1596.9523 801 4291870899
-38.223854 1597.0789 802 4292002229
-36.990826 1597.0789 802 4291871149
-35.757797 1597.0789 802 4291805356
-34.627522 1597.3322 804 4291673266
-33.390827 1597.3322 804 4292068024
-32.201836 1597.4587 805 4292396464
-31.009174 1597.5853 806 4292725173
-29.85688 1597.8385 808 4292067763
-28.655046 1597.9651 809 4292067763
-27.449541 1598.0918 810 4292330678
125.50459 1598.5981 814 4286086826
126.57431 1598.4716 813 4286086826
127.64037 1598.345 812 4286152873
128.51376 1598.0918 810 4286218666
129.57065 1597.9651 809 4286218664
130.23853 1597.5853 806 4285889955
131.28441 1597.4587 805 4286151328
132.52293 1597.4587 805 4286809258
133.56331 1597.3322 804 4288386741
134.8 1597.3322 804 4292202735
135.63303 1597.0789 802 4293979116
136.86606 1597.0789 802 4294966526
137.89359 1596.9523 801 4294900735
139.12477 1596.9523 801 4294769150
140.14679 1596.8257 800 4294967295
141.37614 1596.8257 800 4294835709
142.17981 1596.5725 798 4294374652
143.19083 1596.4459 797 4294243323
144.41467 1596.4459 797 4293979383
145.42018 1596.3192 796 4294637311
146.20183 1596.066 794 4294901247
147.42018 1596.066 794 4294835455
148.63853 1596.066 794 4294835455
149.6312 1595.9395 793 4294967039
150.62018 1595.8129 792 4294769150
151.6055 1595.6863 791 4294769150
152.81834 1595.6863 791 4294769150
154.03119 1595.6863 791 4294703357
154.77431 1595.433 789 4294834943
155.98349 1595.433 789 4294966783
157.19266 1595.433 789 4294966527
158.16147 1595.3064 788 4294900735
159.3688 1595.3064 788 4294636799
-61.480736 1593.9744 787 4291544526
-60.27523 1593.9744 787 4293119697
-59.069725 1593.9744 787 4294369764
-57.952293 1594.0991 788 4293910228
-57.00367 1594.4734 791 4294041814
-55.622017 1594.2239 789 4293845207
-54.412846 1594.2239 789 4294042329
-53.445873 1594.5981 792 4293846488
-52.231194 1594.5981 792 4293385937
-51.093578 1594.7229 793 4293582280
-49.877064 1594.7229 793 4294240211
-48.733944 1594.8477 794 4293320405
-47.658714 1595.0973 796 4291807166
-46.436699 1595.0973 796 4292004548
-45.28257 1595.222 797 4293188565
-44.058716 1595.222 797 4293056720
-42.899082 1595.3468 798 4292332997
-41.798164 1595.5963 800 4292003764
-40.568806 1595.5963 800 4292003764
-39.398167 1595.7211 801 4291673259
-38.166973 1595.7211 801 4292067761
-36.93578 1595.7211 801 4292068015
-35.757797 1595.8458 802 4292002221
-34.524769 1595.8458 802 4291673516
-33.291744 1595.8458 802 4292002481
-32.154129 1596.0955 804 4292199601
-30.963303 1596.2202 805 4292462772
-29.768806 1596.345 806 4292002219
-28.612844 1596.5945 808 4292199599
-27.409174 1596.7192 809 4292462257
125.3211 1597.2184 813 4286086828
126.38899 1597.0936 812 4286152621
127.26605 1596.844 810 4285955496
128.32477 1596.7192 809 4286152619
129.57065 1596.7192 809 4286152873
130.23853 1596.345 806 4285889701
131.28441 1596.2202 805 4285758626
132.3266 1596.0955 804 4286548399
133.56331 1596.0955 804 4288320948
134.39999 1595.8458 802 4292005100
135.63303 1595.8458 802 4293255396
136.66238 1595.7211 801 4294966783
137.68808 1595.5963 800 4294966783
138.91743 1595.5963 800 4294966015
140.14679 1595.5963 800 4294967295
140.95413 1595.3468 798 4294834943
141.96698 1595.222 797 4293979637
143.19083 1595.222 797 4294176759
144.19817 1595.0973 796 4294176244
144.98349 1594.8477 794 4294768637
146.20183 1594.8477 794 4294900735
147.42018 1594.8477 794 4294900735
148.41467 1594.7229 793 4294769150
149.6312 1594.7229 793 4294769150
150.62018 1594.5981 792 4294703357
151.6055 1594.4734 791 4294637308
152.81834 1594.4734 791 4294703357
153.56514 1594.2239 789 4294703357
154.77431 1594.2239 789 4294769150
155.7468 1594.0991 788 4294769150
156.71559 1593.9744 787 4294768895
157.9211 1593.9744 787 4294900479
158.6422 1593.7247 785 4294505981
159.84404 1593.7247 785 4294505981
-61.293579 1592.5229 785 4292203478
-60.091743 1592.5229 785 4293120977
-59.069725 1592.7688 787 4294371301
-57.86422 1592.7688 787 4294370779
-56.744953 1592.8917 788 4294239450
-55.537613 1592.8917 788 4293845468
-54.330276 1592.8917 788 4293648346
-53.365139 1593.2605 791 4293977304
-52.152294 1593.2605 791 4294043354
-51.016514 1593.3835 792 4294174419
-49.801834 1593.3835 792 4294371799
-48.660549 1593.5065 793 4293122513
-47.515594 1593.6294 794 4292069568
-46.297249 1593.6294 794 4292530123
-45.21468 1593.8752 796 4293780191
-43.992661 1593.8752 796 4293056202
-42.834862 1593.9982 797 4292398272
-41.673393 1594.1211 798 4292332218
-40.568806 1594.3669 800 4292398011
-39.339451 1594.3669 800 4292265655
-38.166973 1594.4899 801 4292397498
-36.93578 1594.4899 801 4292528312
-35.704586 1594.4899 801 4292528312
-34.473396 1594.4899 801 4292462518
-33.242203 1594.4899 801 4292462518
-32.058716 1594.6128 802 4292331700
-30.917431 1594.8588 804 4292594872
-29.768806 1595.1046 806 4292660150
-28.612844 1595.3505 808 4292989115
125.13761 1595.8422 812 4286021555
126.38899 1595.8422 812 4285955762
127.26605 1595.5963 810 4285825453
128.32477 1595.4734 809 4285891502
129.37982 1595.3505 808 4286021803
130.23853 1595.1046 806 4285890216
131.28441 1594.9817 805 4285955748
131.93394 1594.6128 802 4287008179
133.16698 1594.6128 802 4287927735
134.2 1594.4899 801 4291217385
135.4312 1594.4899 801 4292598234
136.45871 1594.3669 800 4294967295
137.68808 1594.3669 800 4294966783
138.50275 1594.1211 798 4294966271
139.72844 1594.1211 798 4294966015
140.74312 1593.9982 797 4294571002
141.96698 1593.9982 797 4293979637
142.97615 1593.8752 796 4294637310
144.19817 1593.8752 796 4294374392
144.98349 1593.6294 794 4294769150
145.98166 1593.5065 793 4294900735
147.19817 1593.5065 793 4294769148
148.19083 1593.3835 792 4294703357
149.4055 1593.3835 792 4294374392
150.39265 1593.2605 791 4294637308
151.6055 1593.2605 791 4294703357
152.35596 1593.0146 789 4294703103
153.33211 1592.8917 788 4294703103
154.30458 1592.7688 787 4294703103
155.51009 1592.7688 787 4294768895
156.23853 1592.5229 785 4294900479
157.44037 1592.5229 785 4294966783
158.39999 1592.4 784 4294637308
159.60001 1592.4 784 4294440186
-60.091743 1591.321 785 4293712851
-58.889908 1591.321 785 4294633953
-57.86422 1591.5634 787 4294699747
-56.658714 1591.5634 787 4294633953
-55.453213 1591.5634 787 4294437344
-54.247707 1591.5634 787 4294305758
-53.122936 1591.6844 788 4294305754
-51.994495 1591.8055 789 4294305754
-50.939449 1592.0477 791 4294240476
-49.726604 1592.0477 791 4294306269
-48.587154 1592.1688 792 4292793546
-47.444038 1592.2899 793 4292661960
-46.227524 1592.2899 793 4293122513
-45.078899 1592.411 794 4293780443
-43.992661 1592.6532 796 4292793798
-42.770641 1592.6532 796 4292333247
-41.611008 1592.7743 797 4292594872
-40.387157 1592.7743 797 4292529079
-39.163303 1592.7743 797 4292462255
-37.99633 1592.8954 798 4292659634
-36.880733 1593.1376 800 4292593588
-35.651375 1593.1376 800 4292659382
-34.473396 1593.2587 801 4292593588
-33.242203 1593.2587 801 4292593588
-32.058716 1593.3798 802 4292528562
-30.917431 1593.6221 804 4292660404
-29.724771 1593.7432 805 4292529077
-28.52844 1593.8643 806 4292989628
127.26605 1594.3486 810 4285825966
128.32477 1594.2275 809 4285892015
129.37982 1594.1064 808 4286087596
130.23853 1593.8643 806 4285956010
131.0899 1593.6221 804 4285955750
131.93394 1593.3798 802 4286745010
132.96881 1593.2587 801 4287468980
134.2 1593.2587 801 4290429922
135.22935 1593.1376 800 4292203224
136.45871 1593.1376 800 4294966527
137.27707 1592.8954 798 4294966271
138.50275 1592.8954 798 4294768637
139.51927 1592.7743 797 4294571004
140.5321 1592.6532 796 4294373625
141.75414 1592.6532 796 4293781742
142.97615 1592.6532 796 4294176244
143.76514 1592.411 794 4294176757
144.76514 1592.2899 793 4294769150
145.76147 1592.1688 792 4294834943
146.97615 1592.1688 792 4294769150
148.19083 1592.1688 792 4294703357
149.17981 1592.0477 791 4294637308
150.39265 1592.0477 791 4294505979
151.14679 1591.8055 789 4294769150
152.12477 1591.6844 788 4294638079
153.33211 1591.6844 788 4294572287
154.30458 1591.5634 787 4294769150
155.0367 1591.321 785 4294703357
156.23853 1591.321 785 4294373629
157.2 1591.2 784 4294965759
158.39999 1591.2 784 4294769150
159.35596 1591.0789 783 4294637308
-60 1590 784 4294967295
-58.799999 1590 784 4294967292
-57.688072 1590.1193 785 4294967293
-56.48624 1590.1193 785 4294967292
-55.453213 1590.3578 787 4294967284
-54.082569 1590.1193 785 4294966253
-53.042202 1590.3578 787 4294964195
-51.994495 1590.5963 789 4294700766
-50.78532 1590.5963 789 4293780706
-49.726604 1590.8348 791 4293649120
-48.51376 1590.8348 791 4292334283
-47.444038 1591.0734 793 4292729040
-46.227524 1591.0734 793 4293452244
-45.078899 1591.1926 794 4293649622
-43.992661 1591.4312 796 4292924866
-42.770641 1591.4312 796 4292661951
-41.611008 1591.5504 797 4292726458
-40.387157 1591.5504 797 4292660665
-39.163303 1591.5504 797 4292791733
-37.939449 1591.5504 797 4293252284
-36.770641 1591.6697 798 4292923323
-35.544952 1591.6697 798 4292989117
-34.42202 1591.9082 800 4292858047
-33.192661 1591.9082 800 4293055169
-32.058716 1592.1467 802 4293185978
-30.917431 1592.3854 804 4293317564
-29.680735 1592.3854 804 4293121216
-28.52844 1592.6239 806 4293187009
127.26605 1593.101 810 4286154158
128.32477 1592.9817 809 4286088109
128.99817 1592.6239 806 4286218668
130.04587 1592.5046 805 4286086826
130.70091 1592.1467 802 4286087080
131.73761 1592.0275 801 4286745010
132.96881 1592.0275 801 4287665078
134 1591.9082 800 4290494177
135.22935 1591.9082 800 4292071640
136.05138 1591.6697 798 4294834687
137.07156 1591.5504 797 4294965757
138.08807 1591.4312 796 4294637049
139.31009 1591.4312 796 4294374392
140.11009 1591.1926 794 4294308599
141.32845 1591.1926 794 4294242806
142.54678 1591.1926 794 4294176757
143.76514 1591.1926 794 4294176757
144.76514 1591.0734 793 4294242806
145.76147 1590.9541 792 4294637049
146.75414 1590.8348 791 4294637049
147.96698 1590.8348 791 4294637562
149.17981 1590.8348 791 4294834941
149.93762 1590.5963 789 4294835195
151.14679 1590.5963 789 4294967295
152.12477 1590.4771 788 4294900735
153.09908 1590.3578 787 4294703103
153.83487 1590.1193 785 4294834175
154.8 1590 784 4294965759
156 1590 784 4294571004
157.2 1590 784 4294702590
158.15779 1589.8807 783 4294703357
159.35596 1589.8807 783 4294769150
-59.908257 1588.6826 783 4294967295
-58.710091 1588.6826 783 4294967295
-57.599998 1588.8 784 4294967295
-56.400002 1588.8 784 4294967295
-55.284405 1588.9175 785 4294967295
-54.247707 1589.1523 787 4294967295
-52.880733 1588.9175 785 4294967295
-51.915596 1589.2698 788 4294571504
-50.78532 1589.3872 789 4294241255
-49.576145 1589.3872 789 4293714911
-48.51376 1589.6221 791 4291939534
-47.372478 1589.7395 792 4292466134
-46.227524 1589.8569 793 4293320657
-45.011009 1589.8569 793 4293386451
-43.86055 1589.9744 794 4293056454
-42.6422 1589.9744 794 4292924868
-41.548622 1590.2092 796 4293055423
-40.326607 1590.2092 796 4292792251
-39.104588 1590.2092 796 4292857274
-37.882568 1590.2092 796 4293120703
-36.715595 1590.3267 797 4292791229
-35.491745 1590.3267 797 4292988865
-34.319267 1590.4441 798 4293055171
-33.093578 1590.4441 798 4293120964
-32.011009 1590.7964 801 4293382587
-30.779816 1590.7964 801 4293514173
-29.680735 1591.1487 804 4293383361
-28.486238 1591.2661 805 4293449154
-27.288073 1591.3835 806 4293515209
127.7578 1591.3835 806 4286284972
128.80734 1591.2661 805 4286546350
129.85321 1591.1487 804 4286414764
130.70091 1590.9138 802 4286348969
131.73761 1590.7964 801 4287138484
132.96881 1590.7964 801 4288189628
134 1590.679 800 4290558176
134.82568 1590.4441 798 4291807696
135.8477 1590.3267 797 4294702844
136.86606 1590.2092 796 4294768637
137.6734 1589.9744 794 4294571002
138.89174 1589.9744 794 4294374906
139.89908 1589.8569 793 4294111734
141.1156 1589.8569 793 4294111734
142.33211 1589.8569 793 4294177783
143.54863 1589.8569 793 4294308599
144.32845 1589.6221 791 4294242806
145.54129 1589.6221 791 4294176757
146.31009 1589.3872 789 4294308599
147.96698 1589.6221 791 4294176244
148.72844 1589.3872 789 4294373879
149.93762 1589.3872 789 4294570488
151.14679 1589.3872 789 4294636282
151.4312 1588.9175 785 4294767613
152.63303 1588.9175 785 4294767613
153.60001 1588.8 784 4294636795
154.56331 1588.6826 783 4294702844
155.76147 1588.6826 783 4294637310
156.95964 1588.6826 783 4294703103
157.9156 1588.5652 782 4294440699
159.11192 1588.5652 782 4294374906
-61.012844 1587.3688 782 4294967295
-59.816513 1587.3688 782 4294967295
-58.620182 1587.3688 782 4294967295
-57.511925 1587.4844 783 4294967295
-56.313763 1587.4844 783 4294967295
-55.115597 1587.4844 783 4294967295
-53.917431 1587.4844 783 4294967295
-52.799999 1587.6 784 4294967295
-51.678898 1587.7156 785 4294967295
-50.631191 1587.9468 787 4294967295
-49.576145 1588.178 789 4294967295
-48.366974 1588.178 789 4294967295
-47.372478 1588.5248 792 4292993501
-46.157799 1588.5248 792 4293320909
-44.943119 1588.5248 792 4293320909
-43.86055 1588.756 794 4293319372
-42.57798 1588.6404 793 4293188043
-41.423855 1588.756 794 4293252804
-40.326607 1588.9872 796 4293449927
-39.104588 1588.9872 796 4293055173
-37.768806 1588.756 794 4293252552
-36.660549 1588.9872 796 4293186757
-35.438534 1588.9872 796 4293120964
-34.216515 1588.9872 796 4293120714
-33.044037 1589.1028 797 4293515472
-31.820183 1589.1028 797 4293581256
-30.733946 1589.4496 800 4293712585
-29.592661 1589.6808 802 4293515720
-28.444036 1589.9119 804 4293713355
-27.288073 1590.1431 806 4293713357
126.89175 1590.3743 808 4286547377
127.56881 1590.0275 805 4286613170
128.61652 1589.9119 804 4287006383
129.4679 1589.6808 802 4286940590
130.70091 1589.6808 802 4286677418
131.73761 1589.5652 801 4287598520
132.77065 1589.4496 800 4287992765
133.60001 1589.2184 798 4290098140
134.62386 1589.1028 797 4291544008
135.64404 1588.9872 796 4294438900
136.45505 1588.756 794 4294637562
137.6734 1588.756 794 4294374390
138.68257 1588.6404 793 4294045428
139.89908 1588.6404 793 4293782255
140.90276 1588.5248 792 4294045428
142.11743 1588.5248 792 4294242806
143.1156 1588.4092 791 4294110451
144.32845 1588.4092 791 4293978864
145.10092 1588.178 789 4294176244
146.31009 1588.178 789 4294636795
147.51927 1588.178 789 4294308599
148.50275 1588.0624 788 4294374392
149.7101 1588.0624 788 4294505979
150.22935 1587.7156 785 4294505979
151.2 1587.6 784 4294834430
152.16698 1587.4844 783 4294967039
153.13028 1587.3688 782 4294967039
154.3266 1587.3688 782 4294967295
155.04587 1587.1376 780 4294967295
156.23853 1587.1376 780 4294967295
157.4312 1587.1376 780 4294967295
158.62386 1587.1376 780 4294966783
159.81651 1587.1376 780 4294967295
-60.825687 1585.9449 780 4294967295
-59.633026 1585.9449 780 4294967295
-58.440369 1585.9449 780 4294967295
-57.423855 1586.1725 782 4294967295
-56.227524 1586.1725 782 4294967295
-55.031193 1586.1725 782 4294967295
-53.834862 1586.1725 782 4294967295
-52.880733 1586.5138 785 4294967295
-51.678898 1586.5138 785 4294967295
-50.631191 1586.7413 787 4294967295
-49.576145 1586.9688 789 4294967295
-48.51376 1587.1963 791 4294967295
-47.372478 1587.3101 792 4294375158
-46.157799 1587.3101 792 4293124309
-44.943119 1587.3101 792 4293255896
-43.794495 1587.4238 793 4293188043
-42.51376 1587.3101 792 4293056456
-41.361469 1587.4238 793 4293120966
-40.205505 1587.5376 794 4293120966
-38.987156 1587.5376 794 4292988865
-37.711926 1587.4238 793 4293383622
-36.550457 1587.5376 794 4293383620
-35.332111 1587.5376 794 4293317827
-34.216515 1587.7651 796 4293055173
-33.044037 1587.8789 797 4293515724
-31.820183 1587.8789 797 4293515722
-30.642202 1587.9927 798 4293515722
-29.548624 1588.334 801 4293449927
-28.359632 1588.4478 802 4293647562
-27.247707 1588.7889 805 4293647308
126.33028 1588.7889 805 4286217130
127.56881 1588.7889 805 4286875317
128.61652 1588.6753 804 4287202479
129.85321 1588.6753 804 4287136686
130.70091 1588.4478 802 4286545832
131.73761 1588.334 801 4287466934
132.77065 1588.2202 800 4287861178
133.39999 1587.8789 797 4289900762
134.42201 1587.7651 796 4291084742
135.23669 1587.5376 794 4294045428
136.45505 1587.5376 794 4294242554
137.46605 1587.4238 793 4294045176
138.89174 1587.5376 794 4293716210
139.68808 1587.3101 792 4293847796
140.68991 1587.1963 791 4293979635
141.90276 1587.1963 791 4294176757
143.1156 1587.1963 791 4293848048
143.89174 1586.9688 789 4293848048
145.10092 1586.9688 789 4294109938
146.08807 1586.8551 788 4294438902
147.29541 1586.8551 788 4294045941
148.27707 1586.7413 787 4292598495
149.02753 1586.5138 785 4291612881
150 1586.4 784 4292139481
150.73761 1586.1725 782 4292795104
151.93394 1586.1725 782 4292992740
152.66055 1585.9449 780 4293387497
153.85321 1585.9449 780 4293913842
155.04587 1585.9449 780 4294440186
156.23853 1585.9449 780 4294440186
157.189 1585.8312 779 4294505727
158.37982 1585.8312 779 4294637311
159.57065 1585.8312 779 4294768637
-60.825687 1584.7523 780 4294967295
-59.633026 1584.7523 780 4294967295
-58.440369 1584.7523 780 4294967295
-57.247707 1584.7523 780 4294967295
-56.055046 1584.7523 780 4294967295
-55.031193 1584.9762 782 4294967295
-53.669724 1584.7523 780 4294967295
-52.799999 1585.2 784 4294967295
-51.678898 1585.3119 785 4294967295
-50.631191 1585.5358 787 4294967295
-49.42569 1585.5358 787 4294967295
-48.366974 1585.7596 789 4294967295
-47.372478 1586.0955 792 4294967295
-46.157799 1586.0955 792 4293452259
-44.875229 1585.9835 791 4293189088
-43.728439 1586.0955 792 4293056716
-42.449543 1585.9835 791 4292990922
-41.299084 1586.0955 792 4293054921
-40.144955 1586.2073 793 4292857799
-38.92844 1586.2073 793 4292857795
-37.711926 1586.2073 793 4293515724
-36.550457 1586.3192 794 4293581002
-35.332111 1586.3192 794 4293909967
-34.216515 1586.5431 796 4293581263
-32.994495 1586.5431 796 4294107863
-31.820183 1586.655 797 4293779151
-30.642202 1586.767 798 4293647308
-29.548624 1587.1028 801 4293647562
-28.359632 1587.2147 802 4293910478
-27.20734 1587.4385 804 4293779664
126.33028 1587.5504 805 4287464883
127.56881 1587.5504 805 4287662519
128.23486 1587.2147 802 4287793587
129.4679 1587.2147 802 4287464622
130.50642 1587.1028 801 4287136686
131.54129 1586.9908 800 4287597237
132.37431 1586.767 798 4288189374
133.2 1586.5431 796 4289965785
134.01834 1586.3192 794 4290952900
135.03302 1586.2073 793 4294045428
136.24954 1586.2073 793 4294308349
137.46605 1586.2073 793 4294045178
138.47339 1586.0955 792 4293978614
139.47707 1585.9835 791 4294110201
140.68991 1585.9835 791 4294110451
141.47339 1585.7596 789 4294242293
142.68257 1585.7596 789 4293978864
143.6734 1585.6477 788 4293847535
144.88074 1585.6477 788 4294044144
146.08807 1585.6477 788 4294570488
147.07156 1585.5358 787 4293321700
147.82568 1585.3119 785 4283913301
149.02753 1585.3119 785 4279707932
150 1585.2 784 4278852623
150.73761 1584.9762 782 4281150286
151.93394 1584.9762 782 4281940059
152.66055 1584.7523 780 4283056727
153.61652 1584.6404 779 4283583071
154.80734 1584.6404 779 4283781218
155.99817 1584.6404 779 4284373098
157.189 1584.6404 779 4285885076
158.37982 1584.6404 779 4286806178
159.57065 1584.6404 779 4287201427
-60.638531 1583.3395 778 4294967295
-59.449543 1583.3395 778 4294967295
-58.260551 1583.3395 778 4294967295
-57.159634 1583.4496 779 4294967295
-55.968807 1583.4496 779 4294967295
-54.862385 1583.5596 780 4294967295
-53.669724 1583.5596 780 4294967295
-52.477066 1583.5596 780 4294967295
-51.599998 1584 784 4294967295
-50.477066 1584.1101 785 4294967295
-49.42569 1584.3303 787 4294967295
-48.220184 1584.3303 787 4294967295
-47.300919 1584.7706 791 4294967295
-46.088074 1584.7706 791 4294308334
-44.875229 1584.7706 791 4293189853
-43.662384 1584.7706 791 4293517005
-42.449543 1584.7706 791 4293188041
-41.236698 1584.7706 791 4293580230
-40.084404 1584.8807 792 4293646279
-38.869724 1584.8807 792 4293515720
-37.655045 1584.8807 792 4293449927
-36.495415 1584.9908 793 4293515722
-35.2789 1584.9908 793 4293713357
-34.113762 1585.101 794 4293449927
-32.994495 1585.321 796 4294042320
-31.772476 1585.321 796 4293779151
-30.596331 1585.4312 797 4293779151
-29.504587 1585.7615 800 4293779410
-28.31743 1585.8716 801 4293713617
-27.126606 1585.9817 802 4293319374
126.33028 1586.3119 805 4287924405
127.37981 1586.2018 804 4288121784
128.23486 1585.9817 802 4288318647
129.4679 1585.9817 802 4287792303
130.50642 1585.8716 801 4287398831
131.54129 1585.7615 800 4287925175
132.37431 1585.5413 798 4288714173
133.2 1585.321 796 4290293205
134.01834 1585.101 794 4290755005
135.03302 1584.9908 793 4293847533
136.24954 1584.9908 793 4294242300
137.46605 1584.9908 793 4294045178
138.26422 1584.7706 791 4293781490
139.47707 1584.7706 791 4293781490
140.26422 1584.5504 789 4293846765
141.25871 1584.4404 788 4293912558
142.46605 1584.4404 788 4293846765
143.45505 1584.3303 787 4293846765
144.66055 1584.3303 787 4293649387
145.86606 1584.3303 787 4294570488
146.62386 1584.1101 785 4292992740
147.60001 1584 784 4284834151
148.8 1584 784 4278190080
149.77065 1583.8899 783 4278190082
150.27522 1583.5596 780 4278191388
151.4679 1583.5596 780 4279046954
152.42569 1583.4496 779 4279702567
153.61652 1583.4496 779 4280623669
154.80734 1583.4496 779 4280230962
155.7578 1583.3395 778 4280296755
156.94679 1583.3395 778 4283320417
158.37982 1583.4496 779 4283583588
159.32477 1583.3395 778 4284635230
-60.638531 1582.1505 778 4294967295
-59.3578 1582.0422 777 4294967295
-58.170643 1582.0422 777 4294967295
-57.07156 1582.1505 778 4294967295
-55.882568 1582.1505 778 4294967295
-54.777981 1582.2587 779 4294967295
-53.587154 1582.2587 779 4294967295
-52.315598 1582.1505 778 4294967295
-51.205505 1582.2587 779 4294967295
-50.091743 1582.3669 780 4294967295
-49.27523 1582.9082 785 4294967295
-48.220184 1583.1248 787 4294967295
-47.157799 1583.3413 789 4294967295
-45.948624 1583.3413 789 4294967292
-44.671558 1583.233 788 4293979112
-43.530273 1583.3413 789 4293582799
-42.449543 1583.5579 791 4294109143
-41.236698 1583.5579 791 4294108624
-40.023853 1583.5579 791 4294306260
-38.869724 1583.666 792 4293647308
-37.655045 1583.666 792 4293713357
-36.440369 1583.666 792 4293779151
-35.2789 1583.7743 793 4294173908
-34.113762 1583.8826 794 4294042579
-32.994495 1584.0991 796 4294240215
-31.772476 1584.0991 796 4293911252
-30.596331 1584.2073 797 4294108374
-29.416513 1584.3156 798 4294108122
-28.275229 1584.5321 800 4294239709
-27.086239 1584.6404 801 4293845720
126.14312 1584.9651 804 4288121273
127.00183 1584.7487 802 4288713153
128.04404 1584.6404 801 4288450234
129.27522 1584.6404 801 4287923889
130.31192 1584.5321 800 4287530942
131.14862 1584.3156 798 4288781265
132.17615 1584.2073 797 4288912833
133.2 1584.0991 796 4289965522
134.01834 1583.8826 794 4290688953
135.03302 1583.7743 793 4293846761
135.83853 1583.5579 791 4294242554
137.25871 1583.666 792 4294242554
137.84587 1583.3413 789 4293978866
139.05504 1583.3413 789 4293978866
140.05138 1583.233 788 4293782001
141.25871 1583.233 788 4293584879
142.24954 1583.1248 787 4293519086
143.45505 1583.1248 787 4293584879
144.66055 1583.1248 787 4293716206
145.42201 1582.9082 785 4294374392
146.62386 1582.9082 785 4293584629
147.60001 1582.8 784 4286610571
148.57248 1582.6918 783 4279967313
149.54129 1582.5835 782 4278190125
150.27522 1582.3669 780 4278717228
151.23486 1582.2587 779 4281019983
152.42569 1582.2587 779 4281675328
153.37982 1582.1505 778 4283385690
154.5688 1582.1505 778 4282531916
155.7578 1582.1505 778 4281873986
156.94679 1582.1505 778 4282201670
158.13577 1582.1505 778 4283385944
159.0789 1582.0422 777 4283254090
-59.449543 1580.9614 778 4294967295
-58.170643 1580.8551 777 4294967295
-56.983486 1580.8551 777 4294967295
-55.796329 1580.8551 777 4294967295
-54.693577 1580.9614 778 4294967295
-53.504585 1580.9614 778 4294967295
-52.315598 1580.9614 778 4294967295
-51.126606 1580.9614 778 4294967295
-50.014679 1581.0679 779 4294967295
-48.899082 1581.1743 780 4294967295
-48.073395 1581.7064 785 4294967295
-46.871559 1581.7064 785 4294967295
-45.878899 1582.0256 788 4294967295
-44.603668 1581.9193 787 4293914093
-43.464222 1582.0256 788 4293385417
-42.321102 1582.1321 789 4293977810
-41.111927 1582.1321 789 4293911761
-39.902752 1582.1321 789 4293911761
-38.811008 1582.345 791 4293515720
-37.598164 1582.345 791 4293713355
-36.440369 1582.4514 792 4293647821
-35.225689 1582.4514 792 4293845457
-34.062386 1582.5579 793 4293911250
-32.895412 1582.6642 794 4294240215
-31.677065 1582.6642 794 4293845203
-30.550459 1582.8771 796 4294108374
-29.372477 1582.9835 797 4294108376
-28.275229 1583.3027 800 4294174170
-27.086239 1583.4092 801 4294173654
124.90643 1583.7284 804 4288385458
125.76881 1583.5156 802 4288450486
126.81284 1583.4092 801 4288582072
127.85321 1583.3027 800 4288582587
129.08257 1583.3027 800 4288516794
130.31192 1583.3027 800 4288320446
130.9523 1582.9835 797 4288912583
131.97798 1582.8771 796 4289374149
132.8 1582.6642 794 4289834700
133.81651 1582.5579 793 4290754233
134.82936 1582.4514 792 4294241005
136.04404 1582.4514 792 4294176248
137.25871 1582.4514 792 4294242041
138.26422 1582.345 791 4293913842
139.47707 1582.345 791 4293913842
140.05138 1582.0256 788 4293848048
141.04404 1581.9193 787 4293453291
142.24954 1581.9193 787 4293387497
143.01834 1581.7064 785 4293584877
144.22018 1581.7064 785 4293519597
145.42201 1581.7064 785 4293980148
146.39999 1581.6 784 4293716980
147.37431 1581.4935 783 4287071631
147.88991 1581.1743 780 4284038493
149.08257 1581.1743 780 4279173139
150.27522 1581.1743 780 4279635480
151.23486 1581.0679 779 4282135357
152.19083 1580.9614 778 4282070082
153.37982 1580.9614 778 4283123026
154.33028 1580.8551 777 4282991688
155.51743 1580.8551 777 4282662723
156.70459 1580.8551 777 4282923333
158.13577 1580.9614 778 4282791491
159.0789 1580.8551 777 4282463293
-59.3578 1579.6678 777 4294967295
-58.170643 1579.6678 777 4294967295
-56.983486 1579.6678 777 4294967295
-55.796329 1579.6678 777 4294967295
-54.609173 1579.6678 777 4294967295
-53.42202 1579.6678 777 4294967295
-52.234863 1579.6678 777 4294967295
-51.126606 1579.7725 778 4294967295
-49.937614 1579.7725 778 4294967295
-48.899082 1579.9817 780 4294967295
-47.85321 1580.1908 782 4294967295
-46.728439 1580.2954 783 4294967295
-45.669724 1580.5046 785 4294967295
-44.467892 1580.5046 785 4293914607
-43.398167 1580.7137 787 4294043611
-42.256882 1580.8184 788 4294504162
-41.049541 1580.8184 788 4294110171
-39.842201 1580.8184 788 4293978842
-38.693577 1580.923 789 4294043100
-37.598164 1581.1321 791 4294569444
-36.385323 1581.1321 791 4294108626
-35.225689 1581.2367 792 4293911248
-34.062386 1581.3413 793 4294240728
-32.895412 1581.4459 794 4294701279
-31.677065 1581.4459 794 4294372064
-30.550459 1581.655 796 4294569444
-29.372477 1581.7596 797 4294437344
-28.190826 1581.8643 798 4294371551
-27.045872 1582.0734 800 4294437342
125.76881 1582.2826 802 4289238201
126.81284 1582.178 801 4289370043
128.04404 1582.178 801 4289237437
129.08257 1582.0734 800 4289171644
129.72844 1581.7596 797 4288583100
130.75597 1581.655 796 4289109444
131.58165 1581.4459 794 4289636038
132.8 1581.4459 794 4289965003
133.81651 1581.3413 793 4291017149
134.82936 1581.2367 792 4294569970
135.83853 1581.1321 791 4294308086
137.05138 1581.1321 791 4294373879
138.26422 1581.1321 791 4294044658
139.47707 1581.1321 791 4294044658
139.83853 1580.7137 787 4293848048
141.04404 1580.7137 787 4293453291
141.81651 1580.5046 785 4293453293
143.01834 1580.5046 785 4293847794
144 1580.4 784 4293585644
145.2 1580.4 784 4293783023
146.39999 1580.4 784 4294045428
147.14862 1580.1908 782 4289374125
147.88991 1579.9817 780 4283974781
148.85321 1579.8771 779 4278255653
150.04404 1579.8771 779 4279699501
151.00183 1579.7725 778 4282265428
151.95596 1579.6678 777 4282201924
153.14311 1579.6678 777 4283254355
154.09174 1579.5634 776 4283385931
155.27707 1579.5634 776 4282793793
156.46239 1579.5634 776 4283054664
157.89174 1579.6678 777 4282594113
159.0789 1579.6678 777 4282133581
-59.266056 1578.3779 776 4294967295
-58.080734 1578.3779 776 4294967295
-56.895412 1578.3779 776 4294967295
-55.710091 1578.3779 776 4294967295
-54.524769 1578.3779 776 4294967295
-53.339451 1578.3779 776 4294967295
-52.154129 1578.3779 776 4294967295
-51.047707 1578.4807 777 4294967295
-49.86055 1578.4807 777 4294967295
-48.823853 1578.6863 779 4294967295
-47.85321 1578.9945 782 4294967295
-46.728439 1579.0973 783 4294967295
-45.599998 1579.2 784 4294967295
-44.467892 1579.3027 785 4294177779
-43.398167 1579.5083 787 4293977820
-42.256882 1579.611 788 4294307041
-40.987156 1579.5083 787 4293978590
-39.781651 1579.5083 787 4293978590
-38.634861 1579.611 788 4294108374
-37.484406 1579.7137 789 4294371803
-36.385323 1579.9193 791 4294173904
-35.172478 1579.9193 791 4294239697
-34.011009 1580.022 792 4294372064
-32.845871 1580.1248 793 4294700773
-31.677065 1580.2275 794 4294240476
-30.458715 1580.2275 794 4294569698
-29.32844 1580.433 796 4294437342
-28.148624 1580.5358 797 4294437342
-26.92477 1580.5358 797 4294437855
124.53578 1581.0496 802 4289172409
125.58165 1580.9468 801 4289696955
126.62386 1580.844 800 4289960126
127.85321 1580.844 800 4289696444
128.50459 1580.5358 797 4289630651
129.72844 1580.5358 797 4288911037
130.75597 1580.433 796 4289503174
131.97798 1580.433 796 4289832902
132.8 1580.2275 794 4290096330
133.81651 1580.1248 793 4291411908
134.82936 1580.022 792 4294569716
135.83853 1579.9193 791 4294438902
137.05138 1579.9193 791 4294109938
137.84587 1579.7137 789 4293847535
139.05504 1579.7137 789 4293978864
139.41284 1579.3027 785 4293848048
140.61469 1579.3027 785 4293519084
141.60001 1579.2 784 4293453293
142.8 1579.2 784 4293847794
143.77982 1579.0973 783 4293453804
144.97798 1579.0973 783 4293717232
146.17615 1579.0973 783 4294505208
146.69725 1578.7889 780 4290031541
147.66238 1578.6863 779 4286801270
148.62386 1578.5835 778 4278976512
149.81285 1578.5835 778 4280156956
150.76881 1578.4807 777 4282657346
151.7211 1578.3779 776 4282004289
152.90642 1578.3779 776 4283254355
154.09174 1578.3779 776 4283123787
155.27707 1578.3779 776 4282597443
155.97798 1578.1725 774 4282791754
157.15964 1578.1725 774 4282594631
-57.900917 1576.9908 774 4294967295
-56.895412 1577.1926 776 4294967295
-55.710091 1577.1926 776 4294967295
-54.524769 1577.1926 776 4294967295
-53.339451 1577.1926 776 4294967295
-52.154129 1577.1926 776 4294967295
-50.968807 1577.1926 776 4294967295
-49.783485 1577.1926 776 4294967295
-48.673393 1577.2936 777 4294967295
-47.633026 1577.4954 779 4294967295
-46.656879 1577.7982 782 4294967295
-45.530273 1577.899 783 4294967295
-44.400002 1578 784 4294440951
-43.266056 1578.101 785 4294043615
-42.192661 1578.3027 787 4294569959
-40.987156 1578.3027 787 4294241248
-39.781651 1578.3027 787 4294175199
-38.576145 1578.3027 787 4294305754
-37.427525 1578.4037 788 4294305754
-36.27523 1578.5046 789 4294240465
-35.066055 1578.5046 789 4294372051
-33.959633 1578.7064 791 4294241509
-32.746788 1578.7064 791 4294899440
-31.581652 1578.8074 792 4294766822
-30.412844 1578.9082 793 4294964202
-29.240368 1579.0092 794 4294569698
-28.106422 1579.2111 796 4294898406
-26.92477 1579.3119 797 4294898658
125.58165 1579.7156 801 4290486468
126.81284 1579.7156 801 4290684104
127.85321 1579.6146 800 4290289859
128.50459 1579.3119 797 4289895101
129.53395 1579.2111 796 4289502404
130.3633 1579.0092 794 4289962955
131.58165 1579.0092 794 4289570495
132.39999 1578.8074 792 4290162889
133.41284 1578.7064 791 4291215560
134.62569 1578.7064 791 4294636797
135.42752 1578.5046 789 4294505460
136.6367 1578.5046 789 4293781738
137.00917 1578.101 785 4293781742
138.21101 1578.101 785 4293847535
139.2 1578 784 4293782255
140.39999 1578 784 4293519084
141.60001 1578 784 4293453293
142.58165 1577.899 783 4293979637
143.55963 1577.7982 782 4293782251
144.75597 1577.7982 782 4293848044
145.50459 1577.5963 780 4294110453
146.47156 1577.4954 779 4290623424
147.66238 1577.4954 779 4286936449
148.62386 1577.3945 778 4278190080
149.58165 1577.2936 777 4279369749
150.53578 1577.1926 776 4281343283
151.25137 1576.9908 774 4282068787
152.43303 1576.9908 774 4282397752
153.61469 1576.9908 774 4282068033
154.55597 1576.8899 773 4281870654
155.73578 1576.8899 773 4282263111
-57.900917 1575.8092 774 4294967295
-56.719265 1575.8092 774 4294967295
-55.537613 1575.8092 774 4294967295
-54.355965 1575.8092 774 4294967295
-53.174313 1575.8092 774 4294967295
-52.154129 1576.0073 776 4294967295
-50.968807 1576.0073 776 4294967295
-49.783485 1576.0073 776 4294967295
-48.673393 1576.1064 777 4294967295
-47.559631 1576.2056 778 4294967295
-46.51376 1576.4037 780 4294967295
-45.460552 1576.6018 782 4294967295
-44.264221 1576.6018 782 4294375156
-43.133945 1576.7009 783 4294239961
-42.06422 1576.899 785 4294700512
-40.862385 1576.899 785 4294634205
-39.660549 1576.899 785 4294568412
-38.458717 1576.899 785 4294371803
-37.370644 1577.0973 787 4294700512
-36.165138 1577.0973 787 4294832865
-35.012844 1577.1963 788 4294438107
-33.805504 1577.1963 788 4294240222
-32.598164 1577.1963 788 4294964202
-31.438532 1577.2954 789 4294766559
-30.366972 1577.5927 792 4294832352
-29.196331 1577.6918 793 4294569444
-27.979816 1577.6918 793 4294964459
-26.722937 1577.5927 792 4294964715
-25.662386 1577.989 796 4294701799
125.39449 1578.3854 800 4290618057
126.62386 1578.3854 800 4290552264
127.28073 1578.0881 797 4290159302
128.31192 1577.989 796 4290027716
129.14496 1577.7908 794 4289634757
130.16698 1577.6918 793 4289766343
131.38348 1577.6918 793 4289504441
132.2 1577.4935 791 4290293957
133.41284 1577.4935 791 4291215045
134.21835 1577.2954 789 4294373109
135.22202 1577.1963 788 4294571002
135.80734 1576.899 785 4293781742
137.00917 1576.899 785 4293649900
138 1576.8 784 4293847535
139.2 1576.8 784 4293716206
140.18532 1576.7009 783 4293584877
141.38348 1576.7009 783 4293255659
142.3633 1576.6018 782 4293716210
143.55963 1576.6018 782 4293848048
144.31192 1576.4037 780 4293848048
145.28073 1576.3046 779 4293519347
146.24586 1576.2056 778 4291282385
147.43486 1576.2056 778 4287992474
148.16513 1576.0073 776 4278190080
149.35046 1576.0073 776 4278911252
150.06972 1575.8092 774 4280950835
151.25137 1575.8092 774 4281017644
152.19633 1575.7101 773 4281215279
153.13762 1575.611 772 4281541941
154.3156 1575.611 772 4281541941
155.25137 1575.512 771 4281738037
-56.631191 1574.5303 773 4294967295
-55.451378 1574.5303 773 4294967295
-54.355965 1574.6276 774 4294967295
-53.174313 1574.6276 774 4294967295
-51.992661 1574.6276 774 4294967295
-50.811008 1574.6276 774 4294967295
-49.783485 1574.822 776 4294967295
-48.673393 1574.9193 777 4294967295
-47.48624 1574.9193 777 4294967295
-46.442204 1575.1138 779 4294967295
-45.321102 1575.2111 780 4294967295
-44.128441 1575.2111 780 4294309099
-43.06789 1575.4055 782 4294438371
-41.93578 1575.5028 783 4294964972
-40.799999 1575.6 784 4294964197
-39.660549 1575.6973 785 4294965225
-38.458717 1575.6973 785 4294898147
-37.256882 1575.6973 785 4294898147
-36.165138 1575.8917 787 4294832613
-34.959633 1575.8917 787 4294766820
-33.754128 1575.8917 787 4294635750
-32.548622 1575.8917 787 4294965742
-31.390825 1575.989 788 4294965222
-30.183487 1575.989 788 4294966250
-29.152294 1576.3779 792 4294967287
-27.979816 1576.4752 793 4294967290
-26.722937 1576.3779 792 4294966001
-25.585321 1576.5725 794 4294439143
125.02018 1576.9614 798 4290750160
126.05688 1576.8643 797 4290750160
127.28073 1576.8643 797 4290357451
128.31192 1576.767 796 4290423244
129.14496 1576.5725 794 4290359250
130.16698 1576.4752 793 4290030285
130.98715 1576.2808 791 4289702324
131.8 1576.0862 789 4290754755
132.6055 1575.8917 787 4291478217
133.40367 1575.6973 785 4294044144
134.6055 1575.6973 785 4294175733
135.60001 1575.6 784 4293846511
136.8 1575.6 784 4293649900
137.78899 1575.5028 783 4293847535
139.2 1575.6 784 4293848048
139.97064 1575.4055 782 4294045428
141.16698 1575.4055 782 4293519347
141.92661 1575.2111 780 4293585140
143.11926 1575.2111 780 4293716206
144.0899 1575.1138 779 4293519084
145.05688 1575.0165 778 4293518582
146.02019 1574.9193 777 4292005342
147.20734 1574.9193 777 4290032039
148.16513 1574.822 776 4278190080
148.88808 1574.6276 774 4278190096
150.06972 1574.6276 774 4280293425
151.01651 1574.5303 773 4280229667
151.95964 1574.433 772 4280690218
152.89908 1574.3358 771 4281410355
154.07523 1574.3358 771 4281607734
155.00917 1574.2385 770 4282001209
-57.7211 1573.255 772 4294967295
-56.543118 1573.255 772 4294967295
-55.365139 1573.255 772 4294967295
-54.271561 1573.3505 773 4294967295
-53.091743 1573.3505 773 4294967295
-51.911926 1573.3505 773 4294967295
-50.811008 1573.4459 774 4294967295
-49.629356 1573.4459 774 4294967295
-48.598164 1573.6367 776 4294967295
-47.412846 1573.6367 776 4294967295
-46.370644 1573.8275 778 4294967295
-45.251377 1573.923 779 4294967295
-44.128441 1574.0183 780 4294440690
-42.93578 1574.0183 780 4294700764
-41.871559 1574.2092 782 4294964449
-40.799999 1574.4 784 4294963936
-39.599998 1574.4 784 4294964708
-38.458717 1574.4954 785 4294898145
-37.256882 1574.4954 785 4294832352
-36.055046 1574.4954 785 4294766818
-34.959633 1574.6863 787 4294766818
-33.651375 1574.4954 785 4294636002
-32.449543 1574.4954 785 4294965224
-31.343119 1574.6863 787 4294965488
-30.137615 1574.6863 787 4294967291
-29.108257 1575.0679 791 4294967295
-27.937614 1575.1633 792 4294967295
-26.722937 1575.1633 792 4294966007
-25.546789 1575.2587 793 4294505199
123.79449 1575.7358 798 4290619594
124.83303 1575.6404 797 4290619344
125.86789 1575.5449 796 4290553295
127.0899 1575.5449 796 4289898184
127.92661 1575.3541 794 4290555857
128.95045 1575.2587 793 4290492383
129.77431 1575.0679 791 4289834196
130.59082 1574.8771 789 4289637033
131.39999 1574.6863 787 4290755257
132.6055 1574.6863 787 4292004048
133.40367 1574.4954 785 4294306803
134.6055 1574.4954 785 4294175731
135.60001 1574.4 784 4293912558
136.8 1574.4 784 4293583595
137.57799 1574.2092 782 4293715182
138.77431 1574.2092 782 4293584879
139.54129 1574.0183 780 4293716208
140.73395 1574.0183 780 4293322221
141.92661 1574.0183 780 4293585392
143.11926 1574.0183 780 4293584877
144.0899 1573.923 779 4293716206
144.83302 1573.7321 777 4293124339
145.79449 1573.6367 776 4292663788
146.52477 1573.4459 774 4290032321
147.47707 1573.3505 773 4278978840
148.65688 1573.3505 773 4278190083
149.8367 1573.3505 773 4279637026
150.78165 1573.255 772 4280097825
151.95964 1573.255 772 4280690218
152.89908 1573.1597 771 4281017394
153.83487 1573.0642 770 4281148980
-57.7211 1572.077 772 4294967295
-55.365139 1572.077 772 4294967295
-54.187157 1572.077 772 4294967295
-53.009174 1572.077 772 4294967295
-51.831192 1572.077 772 4294967295
-50.732109 1572.1707 773 4294967295
-49.552292 1572.1707 773 4294967295
-48.372478 1572.1707 773 4294967295
-47.266056 1572.2642 774 4294967295
-46.227524 1572.4514 776 4294967295
-45.181652 1572.6385 778 4294967295
-44.060551 1572.7321 779 4294967291
-42.869724 1572.7321 779 4294965224
-41.678898 1572.7321 779 4294967280
-40.675228 1573.0128 782 4294965991
-39.478901 1573.0128 782 4294965991
-38.400002 1573.2 784 4294964709
-37.200001 1573.2 784 4294965736
-36 1573.2 784 4294964202
-34.85321 1573.2936 785 4294965486
-33.651375 1573.2936 785 4294965224
-32.449543 1573.2936 785 4294967290
-31.247707 1573.2936 785 4294967295
-30.137615 1573.4807 787 4294967295
-28.976147 1573.5743 788 4294967295
-27.811008 1573.6678 789 4294967295
-26.68257 1573.8551 791 4294967295
-25.508257 1573.9486 792 4294769400
-24.366972 1574.1357 794 4294570222
124.64587 1574.323 796 4290949070
125.86789 1574.323 796 4290685899
126.70826 1574.1357 794 4290290893
127.54128 1573.9486 792 4291606753
128.75597 1573.9486 792 4291214571
129.38165 1573.6678 789 4290227676
130.19449 1573.4807 787 4289505193
131 1573.2936 785 4291215810
132.20183 1573.2936 785 4292333277
133.2 1573.2 784 4294504445
134.39999 1573.2 784 4294307316
135.39265 1573.1064 783 4293978351
136.59082 1573.1064 783 4293649135
137.57799 1573.0128 782 4293649135
138.34862 1572.8257 780 4293453039
139.54129 1572.8257 780 4293584625
140.51743 1572.7321 779 4293519084
141.70825 1572.7321 779 4293716206
142.67889 1572.6385 778 4293585131
143.64587 1572.5449 777 4293716460
144.60918 1572.4514 776 4293716980
145.34312 1572.2642 774 4292795878
146.52477 1572.2642 774 4290624453
147.47707 1572.1707 773 4279308314
148.42569 1572.077 772 4278190087
149.60367 1572.077 772 4279768876
150.54678 1571.9835 771 4280163368
151.72293 1571.9835 771 4280623919
152.66055 1571.8899 770 4281017644
153.83487 1571.8899 770 4280951850
-55.2789 1570.8074 771 4294967295
-54.187157 1570.899 772 4294967295
-53.009174 1570.899 772 4294967295
-51.831192 1570.899 772 4294967295
-50.65321 1570.899 772 4294967295
-49.475231 1570.899 772 4294967295
-48.297249 1570.899 772 4294967295
-47.192661 1570.9908 773 4294967295
-46.012844 1570.9908 773 4294967295
-45.111927 1571.3578 777 4294967295
-44.060551 1571.5413 779 4294967294
-42.737614 1571.3578 777 4294965481
-41.550457 1571.3578 777 4294967280
-40.488075 1571.5413 779 4294966513
-39.3578 1571.6331 780 4294966255
-38.28257 1571.8165 782 4294964202
-37.086239 1571.8165 782 4294964716
-35.944954 1571.9082 783 4294832354
-34.85321 1572.0918 785 4294965739
-33.599998 1572 784 4294966001
-32.449543 1572.0918 785 4294967295
-31.247707 1572.0918 785 4294967295
-30.137615 1572.2753 787 4294967295
-28.93211 1572.2753 787 4294967295
-27.768806 1572.3669 788 4294967295
-26.68257 1572.6422 791 4294967295
-25.469725 1572.6422 791 4294967294
-24.330275 1572.8257 793 4294438637
-23.113762 1572.8257 793 4294570222
124.64587 1573.101 796 4290752979
125.48991 1572.9175 794 4290292428
126.70826 1572.9175 794 4289962441
127.54128 1572.7339 792 4292067817
128.56146 1572.6422 791 4291938030
128.989 1572.2753 787 4289832654
129.79817 1572.0918 785 4289765521
131 1572.0918 785 4292528827
132 1572 784 4293188836
132.99634 1571.9082 783 4294373109
133.989 1571.8165 782 4293978353
135.39265 1571.9082 783 4293715182
136.38165 1571.8165 782 4293649135
137.15596 1571.6331 780 4293715184
138.13577 1571.5413 779 4293518315
139.3266 1571.5413 779 4293649902
140.51743 1571.5413 779 4293584877
141.48991 1571.4496 778 4293716206
142.45871 1571.3578 777 4293189349
143.42386 1571.2661 776 4293715693
144.60918 1571.2661 776 4293651187
145.34312 1571.0825 774 4293058794
146.29724 1570.9908 773 4290822868
147.24771 1570.899 772 4280690489
148.19449 1570.8074 771 4278190083
149.37064 1570.8074 771 4279571494
150.54678 1570.8074 771 4280163618
151.48624 1570.7156 770 4280426790
152.18349 1570.5321 768 4280688429
153.35413 1570.5321 768 4280951600
-54.102753 1569.6312 771 4294967295
-52.926605 1569.6312 771 4294967295
-51.750458 1569.6312 771 4294967295
-50.65321 1569.7211 772 4294967295
-49.475231 1569.7211 772 4294967295
-48.297249 1569.7211 772 4294967295
-47.119267 1569.7211 772 4294967295
-45.941284 1569.7211 772 4294967295
-44.833027 1569.811 773 4294967295
-43.85688 1570.0807 776 4294967295
-42.539448 1569.9009 774 4294966520
-41.48624 1570.0807 776 4294967295
-40.363304 1570.1707 777 4294967289
-39.297249 1570.3505 779 4294965742
-38.106422 1570.3505 779 4294965235
-37.086239 1570.6202 782 4294967034
-35.779816 1570.4404 780 4294964970
-34.799999 1570.8 784 4294967026
-33.599998 1570.8 784 4294967290
-32.400002 1570.8 784 4294967295
-31.200001 1570.8 784 4294967295
-30.045872 1570.8899 785 4294967295
