# .PCD v0.7 - Point Cloud Data file format
VERSION 0.7
FIELDS x y z rgb
SIZE 4 4 4 4
TYPE F F F U
COUNT 1 1 1 1
WIDTH 1364
HEIGHT 1
VIEWPOINT 0 0 0 1 0 0 0
POINTS 1364
DATA ascii
-41.743118 1575.2111 780 4294375158
-40.675228 1575.4055 782 4293779925
-39.478901 1575.4055 782 4294109147
-38.341286 1575.5028 783 4293911252
-37.14312 1575.5028 783 4293911252
-35.944954 1575.5028 783 4294041807
-34.799999 1575.6 784 4294041807
-33.599998 1575.6 784 4294172621
-32.449543 1575.6973 785 4294238414
-31.247707 1575.6973 785 4294304207
-30.137615 1575.8917 787 4294501585
-28.976147 1575.989 788 4294566865
-27.811008 1576.0862 789 4294961880
-26.68257 1576.2808 791 4294962399
-25.508257 1576.3779 792 4294962913
-24.330275 1576.4752 793 4294962655
-23.25321 1576.8643 797 4294633433
131.97798 1576.767 796 4290025406
132.39999 1576.3779 792 4290288322
133.41284 1576.2808 791 4290026171
134.21835 1576.0862 789 4290355393
135.22202 1575.989 788 4289896616
136.42935 1575.989 788 4291804614
137.42752 1575.8917 787 4292528854
138.63303 1575.8917 787 4294239472
139.41284 1575.6973 785 4293714148
140.61469 1575.6973 785 4293582562
141.81651 1575.6973 785 4293582049
142.8 1575.6 784 4293516256
144 1575.6 784 4293451494
144.97798 1575.5028 783 4293714409
145.50459 1575.2111 780 4293121759
146.69725 1575.2111 780 4292858843
147.66238 1575.1138 779 4293187300
148.85321 1575.1138 779 4291476938
149.81285 1575.0165 778 4289174431
150.76881 1574.9193 777 4278190080
151.7211 1574.822 776 4278190080
152.90642 1574.822 776 4279437844
154.09174 1574.822 776 4279635230
154.79633 1574.6276 774 4279635230
155.97798 1574.6276 774 4279437844
157.15964 1574.6276 774 4279503893
158.34128 1574.6276 774 4279961110
159.52293 1574.6276 774 4279961110
160.70459 1574.6276 774 4278650381
161.88625 1574.6276 774 4278190080
163.06789 1574.6276 774 4278321164
-55.365139 1573.255 772 4294967295
-54.187157 1573.255 772 4294967287
-53.091743 1573.3505 773 4294967295
-51.911926 1573.3505 773 4294967295
-50.732109 1573.3505 773 4294967295
-49.552292 1573.3505 773 4294967295
-48.447708 1573.4459 774 4294967295
-47.266056 1573.4459 774 4294967295
-46.227524 1573.6367 776 4294967295
-45.111927 1573.7321 777 4294967295
-43.92477 1573.7321 777 4294967295
-42.737614 1573.7321 777 4294967295
-41.678898 1573.923 779 4294375158
-40.550457 1574.0183 780 4294240474
-39.3578 1574.0183 780 4294109145
-38.28257 1574.2092 782 4294304724
-37.086239 1574.2092 782 4294370518
-35.889908 1574.2092 782 4294238416
-34.799999 1574.4 784 4294106830
-33.599998 1574.4 784 4294238414
-32.400002 1574.4 784 4294501585
-31.200001 1574.4 784 4294304461
-30.045872 1574.4954 785 4294238668
-28.93211 1574.6863 787 4294501331
-27.726606 1574.6863 787 4294962396
-26.601835 1574.8771 789 4294961882
-25.469725 1575.0679 791 4294962909
-24.293577 1575.1633 792 4294963175
-23.078899 1575.1633 792 4294633953
131.38348 1575.2587 793 4290747326
132.2 1575.0679 791 4290550204
133.00917 1574.8771 789 4290026169
134.01468 1574.7816 788 4290355391
135.22202 1574.7816 788 4289765800
136.22202 1574.6863 787 4291673798
137.42752 1574.6863 787 4292266452
138.21101 1574.4954 785 4293648105
139.41284 1574.4954 785 4293714150
140.39999 1574.4 784 4293582308
141.60001 1574.4 784 4293319392
142.8 1574.4 784 4293385186
143.77982 1574.3046 783 4293582310
144.31192 1574.0183 780 4293516517
145.9523 1574.2092 782 4292925150
146.69725 1574.0183 780 4292925150
147.88991 1574.0183 780 4292991202
148.85321 1573.923 779 4292267736
149.81285 1573.8275 778 4288913335
150.53578 1573.6367 776 4278978592
151.7211 1573.6367 776 4278190080
152.90642 1573.6367 776 4279175440
153.61469 1573.4459 774 4279635230
154.79633 1573.4459 774 4279569436
155.97798 1573.4459 774 4279635727
156.9156 1573.3505 773 4279241226
158.34128 1573.4459 774 4279633162
159.52293 1573.4459 774 4279698956
160.45505 1573.3505 773 4279109383
161.63486 1573.3505 773 4278190080
-55.192661 1571.8899 770 4294967295
-54.018349 1571.8899 770 4294967293
-52.926605 1571.9835 771 4294967295
-51.750458 1571.9835 771 4294967295
-50.65321 1572.077 772 4294967295
-49.475231 1572.077 772 4294967295
-48.372478 1572.1707 773 4294967295
-47.192661 1572.1707 773 4294967295
-46.012844 1572.1707 773 4294967295
-45.042202 1572.4514 776 4294967295
-43.85688 1572.4514 776 4294967295
-42.671558 1572.4514 776 4294967295
-41.550457 1572.5449 777 4294243052
-40.42569 1572.6385 778 4294371549
-39.297249 1572.7321 779 4294700514
-38.165138 1572.8257 780 4294699480
-36.972477 1572.8257 780 4294699480
-35.889908 1573.0128 782 4294370264
-34.746788 1573.1064 783 4294436313
-33.548622 1573.1064 783 4294633172
-32.35046 1573.1064 783 4294962136
-31.200001 1573.2 784 4294633426
-30.045872 1573.2936 785 4294962392
-28.844036 1573.2936 785 4294963170
-27.726606 1573.4807 787 4294963941
-26.601835 1573.6678 789 4294964193
-25.39266 1573.6678 789 4294966763
-24.25688 1573.8551 791 4294966511
-23.044037 1573.8551 791 4294371803
-21.86422 1573.9486 792 4294371551
130.98715 1573.8551 791 4290618048
131.8 1573.6678 789 4290815170
132.80734 1573.5743 788 4290618561
133.811 1573.4807 787 4290552768
135.01651 1573.4807 787 4290028198
135.80734 1573.2936 785 4292199110
137.00917 1573.2936 785 4292594650
138.21101 1573.2936 785 4293515752
139.2 1573.2 784 4293844964
140.39999 1573.2 784 4293844964
141.38348 1573.1064 783 4293253345
142.3633 1573.0128 782 4293055966
143.11926 1572.8257 780 4293253345
144.31192 1572.8257 780 4293187552
145.28073 1572.7321 779 4293187806
146.69725 1572.8257 780 4293253599
147.66238 1572.7321 779 4293188065
148.85321 1572.7321 779 4292859101
149.35046 1572.4514 776 4290292680
150.53578 1572.4514 776 4280291888
151.25137 1572.2642 774 4278190080
152.43303 1572.2642 774 4279240722
153.37614 1572.1707 773 4279635230
154.55597 1572.1707 773 4279437594
155.49358 1572.077 772 4279436288
156.67155 1572.077 772 4278779904
158.09541 1572.1707 773 4278190080
159.27522 1572.1707 773 4278190080
160.20551 1572.077 772 4278190080
-55.192661 1570.7156 770 4294967295
-54.018349 1570.7156 770 4294967295
-52.926605 1570.8074 771 4294967295
-51.669724 1570.7156 770 4294967295
-50.57431 1570.8074 771 4294967295
-49.398167 1570.8074 771 4294967295
-48.222019 1570.8074 771 4294967295
-47.119267 1570.899 772 4294967295
-45.941284 1570.899 772 4294967295
-44.902752 1571.0825 774 4294967295
-43.85688 1571.2661 776 4294967295
-42.671558 1571.2661 776 4294967290
-41.3578 1571.0825 774 4294308588
-40.300919 1571.2661 776 4294963684
-39.176147 1571.3578 777 4294964712
-38.106422 1571.5413 779 4294831078
-36.915596 1571.5413 779 4294502369
-35.779816 1571.6331 780 4294501585
-34.693577 1571.8165 782 4294633172
-33.548622 1571.9082 783 4294567377
-32.35046 1571.9082 783 4294567377
-31.152294 1571.9082 783 4294567115
-30 1572 784 4294962645
-28.844036 1572.0918 785 4294962657
-27.726606 1572.2753 787 4294964713
-26.521101 1572.2753 787 4294966776
-25.39266 1572.4587 789 4294967294
-24.183487 1572.4587 789 4294967294
-22.974312 1572.4587 789 4294767856
-21.765137 1572.4587 789 4294043615
130.59082 1572.4587 789 4290420412
131.60001 1572.3669 788 4290749377
132.6055 1572.2753 787 4290618307
133.40367 1572.0918 785 4290289598
134.6055 1572.0918 785 4290289830
135.80734 1572.0918 785 4292789964
136.8 1572 784 4293317855
138 1572 784 4293712613
138.98715 1571.9082 783 4293646304
140.18532 1571.9082 783 4293646304
141.16698 1571.8165 782 4293581024
141.92661 1571.6331 780 4293581024
142.89908 1571.5413 779 4293450210
144.0899 1571.5413 779 4293384417
145.28073 1571.5413 779 4293253599
146.47156 1571.5413 779 4293253599
147.20734 1571.3578 777 4293057249
148.16513 1571.2661 776 4293057249
148.88808 1571.0825 774 4291081158
150.06972 1571.0825 774 4281475637
151.01651 1570.9908 773 4278190080
152.19633 1570.9908 773 4278781969
153.13762 1570.899 772 4279701023
154.3156 1570.899 772 4279174679
155.25137 1570.8074 771 4278452224
156.67155 1570.899 772 4278976512
157.84955 1570.899 772 4278648850
159.02753 1570.899 772 4278190089
160.20551 1570.899 772 4278190080
-54.102753 1569.6312 771 4294967288
-52.926605 1569.6312 771 4294967287
-51.669724 1569.5413 770 4294967285
-50.57431 1569.6312 771 4294967295
-49.398167 1569.6312 771 4294967295
-48.222019 1569.6312 771 4294967295
-47.119267 1569.7211 772 4294967295
-45.941284 1569.7211 772 4294967295
-44.763302 1569.7211 772 4294967295
-43.7211 1569.9009 774 4294967295
-42.473396 1569.811 773 4294965750
-41.293579 1569.811 773 4294307564
-40.176147 1569.9009 774 4294963688
-38.994495 1569.9009 774 4294967292
-37.930275 1570.0807 776 4294966517
-36.858715 1570.2605 778 4294503653
-35.72477 1570.3505 779 4294634455
-34.587154 1570.4404 780 4294831834
-33.49725 1570.6202 782 4294831066
-32.300919 1570.6202 782 4294831066
-31.152294 1570.7101 783 4294831320
-29.954128 1570.7101 783 4294963421
-28.799999 1570.8 784 4294766818
-27.726606 1571.0697 787 4294967295
-26.521101 1571.0697 787 4294967295
-25.354128 1571.1597 788 4294967295
-24.183487 1571.2495 789 4294967295
-22.974312 1571.2495 789 4294967034
-21.765137 1571.2495 789 4294437605
-20.555964 1571.2495 789 4294371812
129.18532 1571.1597 788 4290749897
130.39265 1571.1597 788 4290816194
131.39999 1571.0697 787 4290947523
132.20183 1570.8899 785 4290684617
133.40367 1570.8899 785 4289960895
134.39999 1570.8 784 4289764515
135.60001 1570.8 784 4292791250
136.59082 1570.7101 783 4293319138
137.78899 1570.7101 783 4293648103
138.77431 1570.6202 782 4293253599
139.54129 1570.4404 780 4293187806
140.73395 1570.4404 780 4293450208
141.70825 1570.3505 779 4293910759
142.89908 1570.3505 779 4293253345
144.31192 1570.4404 780 4293187552
145.28073 1570.3505 779 4293319390
146.47156 1570.3505 779 4293385184
146.97981 1570.0807 776 4293253599
147.70642 1569.9009 774 4293385186
148.65688 1569.811 773 4291477702
149.8367 1569.811 773 4282529853
150.78165 1569.7211 772 4278190080
151.95964 1569.7211 772 4278976784
152.89908 1569.6312 771 4279635230
154.07523 1569.6312 771 4278648846
155.25137 1569.6312 771 4279173125
156.42752 1569.6312 771 4286868346
157.60367 1569.6312 771 4290554006
158.77982 1569.6312 771 4291409315
159.70642 1569.5413 770 4291080114
-52.678898 1568.1908 768 4294967293
-51.508255 1568.1908 768 4294967284
-50.495415 1568.3669 770 4294967295
-49.398167 1568.4551 771 4294967295
-48.222019 1568.4551 771 4294967295
-47.045872 1568.4551 771 4294967295
-45.869724 1568.4551 771 4294967295
-44.693577 1568.4551 771 4294967295
-43.58532 1568.5431 772 4294967295
-42.473396 1568.6312 773 4294965749
-41.293579 1568.6312 773 4293978340
-40.113762 1568.6312 773 4294634205
-38.933945 1568.6312 773 4294967286
-37.812843 1568.7192 774 4294967034
-36.801834 1568.9835 777 4294373098
-35.614677 1568.9835 777 4294765273
-34.427525 1568.9835 777 4294896860
-33.394497 1569.2477 780 4294831066
-32.201836 1569.2477 780 4294896860
-31.104588 1569.4238 782 4294897114
-29.908257 1569.4238 782 4294963164
-28.755962 1569.512 783 4294373346
-27.642202 1569.6881 785 4294967295
-26.4 1569.6 784 4294967295
-25.315596 1569.8643 787 4294967295
-24.14679 1569.9523 788 4294967295
-22.939449 1569.9523 788 4294967039
-21.732111 1569.9523 788 4294569192
-20.524771 1569.9523 788 4294371812
129.18532 1569.9523 788 4290880965
130.19449 1569.8643 787 4290750662
131 1569.6881 785 4290816455
132.20183 1569.6881 785 4290816969
133.2 1569.6 784 4289764537
134.39999 1569.6 784 4289830301
135.39265 1569.512 783 4293251280
136.59082 1569.512 783 4293057251
137.57799 1569.4238 782 4293123044
138.34862 1569.2477 780 4293056736
139.54129 1569.2477 780 4293056736
140.51743 1569.1597 779 4293187804
141.70825 1569.1597 779 4293187804
142.67889 1569.0715 778 4293187552
143.64587 1568.9835 777 4293187552
144.60918 1568.8954 776 4293385188
145.79449 1568.8954 776 4293385188
146.52477 1568.7192 774 4293055712
147.70642 1568.7192 774 4293384934
148.42569 1568.5431 772 4292135636
149.60367 1568.5431 772 4283977048
150.54678 1568.4551 771 4278648833
151.72293 1568.4551 771 4278779908
152.89908 1568.4551 771 4279110932
154.07523 1568.4551 771 4278190080
155.00917 1568.3669 770 4278648832
156.18349 1568.3669 770 4287329915
157.3578 1568.3669 770 4291472321
158.5321 1568.3669 770 4293840869
159.70642 1568.3669 770 4292989144
160.88074 1568.3669 770 4292857558
-52.596329 1566.934 767 4294967294
-51.427525 1566.934 767 4294967291
-50.337616 1567.0201 768 4294967295
-49.321102 1567.1926 770 4294967292
-48.14679 1567.1926 770 4294967290
-47.045872 1567.2789 771 4294967290
-45.869724 1567.2789 771 4294967295
-44.693577 1567.2789 771 4294967295
-43.517429 1567.2789 771 4294967295
-42.407341 1567.3651 772 4294834932
-41.229359 1567.3651 772 4293584608
-40.051376 1567.3651 772 4294175199
-38.873394 1567.3651 772 4294967293
-37.754128 1567.4514 773 4294967291
-36.744953 1567.7101 776 4294898924
-35.559631 1567.7101 776 4294832352
-34.21468 1567.4514 773 4294965480
-33.343121 1567.9688 779 4294963170
-32.201836 1568.0551 780 4294963170
-31.009174 1568.0551 780 4294831580
-29.908257 1568.2275 782 4294967278
-28.711927 1568.2275 782 4294967295
-27.515596 1568.2275 782 4294967295
-26.359632 1568.3137 783 4294967295
-25.161469 1568.3137 783 4294967295
-24.036697 1568.4862 785 4294967295
-22.904587 1568.6587 787 4294901502
-21.699083 1568.6587 787 4294438121
-20.493578 1568.6587 787 4294240742
128.989 1568.6587 787 4291078345
129.79817 1568.4862 785 4291342798
130.8 1568.4 784 4291869398
132 1568.4 784 4290818252
132.99634 1568.3137 783 4289765564
134.19449 1568.3137 783 4289832100
135.18532 1568.2275 782 4293055700
135.9633 1568.0551 780 4293319140
137.15596 1568.0551 780 4293384934
138.34862 1568.0551 780 4293122011
139.3266 1567.9688 779 4293056218
140.30092 1567.8826 778 4292925146
141.48991 1567.8826 778 4292925146
142.45871 1567.7964 777 4292990943
143.42386 1567.7101 776 4292990943
144.60918 1567.7101 776 4293253347
145.34312 1567.5376 774 4293253347
146.29724 1567.4514 773 4293055966
147.47707 1567.4514 773 4293516517
148.42569 1567.3651 772 4292596698
149.37064 1567.2789 771 4284767331
150.54678 1567.2789 771 4278190115
151.72293 1567.2789 771 4278190112
152.66055 1567.1926 770 4278847761
153.83487 1567.1926 770 4278190083
155.00917 1567.1926 770 4278190080
156.18349 1567.1926 770 4286804852
157.3578 1567.1926 770 4290945725
158.5321 1567.1926 770 4294301168
159.70642 1567.1926 770 4293777122
160.88074 1567.1926 770 4293842916
-51.508255 1565.8495 768 4294967291
-50.337616 1565.8495 768 4294967291
-49.166973 1565.8495 768 4294965737
-47.99633 1565.8495 768 4294967279
-46.972477 1566.0183 770 4294967279
-45.798164 1566.0183 770 4294967287
-44.484406 1565.8495 768 4294967295
-43.313763 1565.8495 768 4294967295
-42.27523 1566.0183 770 4294637297
-41.165138 1566.1028 771 4293255644
-39.988991 1566.1028 771 4293911765
-38.812843 1566.1028 771 4294967288
-37.695412 1566.1871 772 4294967289
-36.57431 1566.2716 773 4294965229
-35.449543 1566.356 774 4294832350
-34.21468 1566.2716 773 4294964192
-33.188992 1566.5248 776 4294700252
-32.102753 1566.6936 778 4294831582
-30.961468 1566.778 779 4294831066
-29.816513 1566.8624 780 4294967292
-28.623854 1566.8624 780 4294967295
-27.431192 1566.8624 780 4294967295
-26.319265 1567.0312 782 4294967295
-25.122936 1567.0312 782 4294967295
-23.963303 1567.1156 783 4294967295
-22.904587 1567.4532 787 4294967295
-21.633028 1567.2844 785 4294898670
-20.493578 1567.4532 787 4294240996
-19.288073 1567.4532 787 4294370777
128.17247 1567.6221 789 4290749377
128.989 1567.4532 787 4291275721
129.60001 1567.2 784 4292394216
130.8 1567.2 784 4292328422
131.79817 1567.1156 783 4291212999
132.79266 1567.0312 782 4289831346
133.57799 1566.8624 780 4289898415
134.77065 1566.8624 780 4292925150
135.9633 1566.8624 780 4293384415
136.94496 1566.778 779 4293384415
138.13577 1566.778 779 4292857558
139.11192 1566.6936 778 4293252316
140.0844 1566.6091 777 4292925659
141.27156 1566.6091 777 4292728537
142.23853 1566.5248 776 4292794332
143.42386 1566.5248 776 4292925661
144.16147 1566.356 774 4292989405
145.34312 1566.356 774 4293121248
146.06972 1566.1871 772 4292990173
147.24771 1566.1871 772 4293582310
148.19449 1566.1028 771 4293057249
149.37064 1566.1028 771 4286346363
150.31192 1566.0183 770 4281872952
151.48624 1566.0183 770 4278190080
152.66055 1566.0183 770 4278977293
153.83487 1566.0183 770 4278255619
154.52477 1565.8495 768 4278910976
155.69542 1565.8495 768 4286340706
156.86606 1565.8495 768 4290289064
158.0367 1565.8495 768 4293907679
159.70642 1566.0183 770 4293318368
-50.258717 1564.5963 767 4294967291
-49.089909 1564.5963 767 4294967028
-47.921101 1564.5963 767 4294967287
-46.825687 1564.679 768 4294967283
-45.655045 1564.679 768 4294967283
-44.484406 1564.679 768 4294967281
-43.313763 1564.679 768 4294967282
-42.27523 1564.844 770 4294703090
-41.165138 1564.9266 771 4293387486
-39.988991 1564.9266 771 4293912797
-38.812843 1564.9266 771 4294967292
-37.695412 1565.0092 772 4294967283
-36.517429 1565.0092 772 4294967024
-35.394497 1565.0918 773 4294965481
-34.21468 1565.0918 773 4294965481
-33.034863 1565.0918 773 4294964455
-31.904587 1565.1743 774 4294963940
-30.818348 1565.3395 776 4294898145
-29.6789 1565.422 777 4294967295
-28.579817 1565.5872 779 4294967295
-27.38899 1565.5872 779 4294967295
-26.238533 1565.6697 780 4294967295
-25.045872 1565.6697 780 4294967295
-23.85321 1565.6697 780 4294967295
-22.799999 1566 784 4294967295
-21.566973 1565.9175 783 4294701806
-20.4 1566 784 4294307305
-19.200001 1566 784 4294502619
128.17247 1566.4128 789 4292594650
128.59633 1566.0825 785 4293055201
129.40184 1565.9175 783 4293712639
130.39999 1565.8348 782 4292594161
131.59633 1565.8348 782 4290619322
132.38531 1565.6697 780 4289698220
133.37248 1565.5872 779 4290488508
134.56331 1565.5872 779 4293843951
135.75414 1565.5872 779 4293582560
136.73395 1565.5046 778 4293319644
137.92294 1565.5046 778 4293187804
138.89725 1565.422 777 4293122011
139.86789 1565.3395 776 4292991708
141.05321 1565.3395 776 4292925659
141.79817 1565.1743 774 4292991195
142.97981 1565.1743 774 4293385697
143.93762 1565.0918 773 4293121759
145.11743 1565.0918 773 4292990173
146.06972 1565.0092 772 4292990171
147.01834 1564.9266 771 4293582308
148.19449 1564.9266 771 4293187554
149.13762 1564.844 770 4287923858
150.31192 1564.844 770 4282593107
151.01285 1564.679 768 4278190095
152.18349 1564.679 768 4278452229
153.35413 1564.679 768 4278452229
154.52477 1564.679 768 4278583296
155.69542 1564.679 768 4283974215
156.86606 1564.679 768 4290091883
157.78899 1564.5963 767 4292526224
159.20734 1564.679 768 4292065473
-51.34679 1563.3468 766 4294966000
-49.012844 1563.3468 766 4294967027
-47.921101 1563.4275 767 4294967287
-46.752293 1563.4275 767 4294967289
-45.583485 1563.4275 767 4294967287
-44.41468 1563.4275 767 4294967285
-43.245872 1563.4275 767 4294967287
-42.077065 1563.4275 767 4294966261
-40.972477 1563.5083 768 4293518815
-39.926605 1563.6697 770 4293846742
-38.752293 1563.6697 770 4294967280
-37.636696 1563.7505 771 4294967287
-36.460552 1563.7505 771 4294967286
-35.339451 1563.8312 772 4294965738
-34.161469 1563.8312 772 4294965738
-33.034863 1563.9119 773 4294964453
-31.855045 1563.9119 773 4294963425
-30.722937 1563.9927 774 4294963422
-29.633028 1564.1542 776 4294967286
-28.491743 1564.2349 777 4294967295
-27.304586 1564.2349 777 4294967295
-26.157799 1564.3156 778 4294967295
-25.007339 1564.3964 779 4294967295
-23.816513 1564.3964 779 4294967295
-22.730276 1564.6385 782 4294967295
-21.533945 1564.6385 782 4294966521
-20.4 1564.8 784 4294110955
-19.346788 1565.2036 789 4294437342
127.97798 1565.1229 788 4293451255
128.39999 1564.8 784 4293714428
129.20367 1564.6385 782 4294174975
130 1564.4771 780 4290621904
131.19266 1564.4771 780 4290618268
132.18166 1564.3964 779 4290684061
133.37248 1564.3964 779 4290816442
134.35596 1564.3156 778 4293908713
135.54495 1564.3156 778 4293384415
136.52293 1564.2349 777 4293318622
137.49725 1564.1542 776 4293056988
138.68257 1564.1542 776 4293056988
139.43486 1563.9927 774 4293056988
140.61652 1563.9927 774 4293056988
141.57799 1563.9119 773 4292858839
142.7578 1563.9119 773 4293253597
143.71376 1563.8312 772 4293253345
144.89174 1563.8312 772 4293055966
145.84221 1563.7505 771 4292989655
147.01834 1563.7505 771 4293516256
147.9633 1563.6697 770 4293187041
149.13762 1563.6697 770 4288383896
149.84221 1563.5083 768 4284695896
151.01285 1563.5083 768 4278517760
151.94496 1563.4275 767 4278517760
153.35413 1563.5083 768 4278977799
154.52477 1563.5083 768 4279173120
155.45137 1563.4275 767 4283579200
156.62018 1563.4275 767 4285092951
157.78899 1563.4275 767 4289369496
-47.921101 1562.2587 767 4294967295
-46.678898 1562.1798 766 4294967295
-45.511925 1562.1798 766 4294967295
-44.344955 1562.1798 766 4294967295
-43.177982 1562.1798 766 4294967295
-42.011009 1562.1798 766 4294967295
-40.908257 1562.2587 767 4294571756
-39.801834 1562.3376 768 4294043613
-38.631191 1562.3376 768 4294569957
-37.57798 1562.4954 770 4294965234
-36.460552 1562.5743 771 4294967295
-35.284405 1562.5743 771 4294966766
-34.161469 1562.6532 772 4294966252
-32.983486 1562.6532 772 4294967020
-31.805504 1562.6532 772 4294967278
-30.67523 1562.7321 773 4294965225
-29.541285 1562.811 774 4294963940
-28.447706 1562.9688 776 4294967280
-27.304586 1563.0477 777 4294967295
-26.157799 1563.1266 778 4294967295
-24.968807 1563.1266 778 4294967295
-23.779816 1563.1266 778 4294967295
-22.625689 1563.2056 779 4294967295
-21.533945 1563.4423 782 4294967295
-20.4 1563.6 784 4294637301
-19.288073 1563.8367 787 4294569194
127.39449 1563.679 785 4294967039
128.20367 1563.5211 783 4294966271
129.20367 1563.4423 782 4293584123
130 1563.2844 780 4289241785
131.19266 1563.2844 780 4289174656
132.18166 1563.2056 779 4290687895
133.16698 1563.1266 778 4291212495
134.35596 1563.1266 778 4293515250
135.33578 1563.0477 777 4293253597
136.31192 1562.9688 776 4293187804
137.07156 1562.811 774 4293187804
138.03853 1562.7321 773 4293122011
139.21835 1562.7321 773 4293056988
140.39816 1562.7321 773 4292991195
141.3578 1562.6532 772 4292727766
142.53578 1562.6532 772 4292991195
143.48991 1562.5743 771 4293253345
144.66606 1562.5743 771 4293121759
145.61469 1562.4954 770 4293122011
146.78899 1562.4954 770 4293582562
147.50092 1562.3376 768 4293187554
148.67155 1562.3376 768 4289568939
149.60735 1562.2587 767 4284567931
150.53944 1562.1798 766 4278190102
151.4679 1562.101 765 4278255627
152.8734 1562.1798 766 4279371803
154.04036 1562.1798 766 4279369991
155.20734 1562.1798 766 4279173123
156.37431 1562.1798 766 4280221696
157.54129 1562.1798 766 4280352768
-47.845871 1561.0128 766 4294967295
-46.678898 1561.0128 766 4294967295
-45.511925 1561.0128 766 4294967295
-44.344955 1561.0128 766 4294967295
-43.177982 1561.0128 766 4294967295
-42.011009 1561.0128 766 4294967295
-40.844036 1561.0128 766 4294967295
-39.739449 1561.09 767 4294109667
-38.570641 1561.09 767 4293780958
-37.401836 1561.09 767 4294831848
-36.289909 1561.167 768 4294967295
-35.229359 1561.321 770 4294967284
-34.108257 1561.3982 771 4294966769
-32.93211 1561.3982 771 4294967281
-31.755962 1561.3982 771 4294967286
-30.627523 1561.4752 772 4294967294
-29.541285 1561.6294 774 4294899442
-28.359632 1561.6294 774 4294965215
-27.262384 1561.7834 776 4294967288
-26.117432 1561.8606 777 4294967295
-24.930275 1561.8606 777 4294967295
-23.74312 1561.8606 777 4294967295
-22.590826 1561.9376 778 4294967295
-21.401834 1561.9376 778 4294967294
-20.337614 1562.2458 782 4294768885
-19.200001 1562.4 784 4294964977
126.57798 1562.6312 787 4294966783
127.2 1562.4 784 4294965759
128.00734 1562.2458 782 4294702335
128.80734 1562.0918 780 4293058544
129.8 1562.0146 779 4288650670
130.99083 1562.0146 779 4288514159
131.97798 1561.9376 778 4292198567
132.96147 1561.8606 777 4292266965
133.94128 1561.7834 776 4293253860
135.1266 1561.7834 776 4293122011
135.67889 1561.5522 773 4293056218
136.85872 1561.5522 773 4292661206
137.82385 1561.4752 772 4293187806
139.00183 1561.4752 772 4293056988
140.17981 1561.4752 772 4292991195
141.13762 1561.3982 771 4292596183
142.31377 1561.3982 771 4293056734
143.48991 1561.3982 771 4293187552
144.44037 1561.321 770 4293187552
145.61469 1561.321 770 4293122011
146.33028 1561.167 768 4293516769
147.26973 1561.09 767 4293253349
148.43854 1561.09 767 4290687166
149.37248 1561.0128 766 4286346631
150.30275 1560.9358 765 4278190082
151.22935 1560.8588 764 4278190080
152.63303 1560.9358 765 4279701784
153.79817 1560.9358 765 4279701523
154.71927 1560.8588 764 4279240972
156.12843 1560.9358 765 4278452237
-47.695412 1559.6954 764 4294967294
-46.532108 1559.6954 764 4294967289
-45.368809 1559.6954 764 4294966254
-44.205505 1559.6954 764 4294966003
-42.906422 1559.5449 762 4294965745
-41.746788 1559.5449 762 4294967279
-40.715595 1559.6954 764 4294967289
-39.677063 1559.8458 766 4294767088
-38.51009 1559.8458 766 4293516765
-37.401836 1559.9211 767 4294306537
-36.233028 1559.9211 767 4294967295
-35.06422 1559.9211 767 4294967294
-33.948624 1559.9963 768 4294967283
-32.880733 1560.1467 770 4294967293
-31.706423 1560.1467 770 4294967295
-30.579817 1560.222 771 4294967295
-29.495413 1560.3724 773 4294901241
-28.315596 1560.3724 773 4294833899
-27.177982 1560.4478 774 4294967295
-26.077065 1560.5981 776 4294967295
-24.930275 1560.6733 777 4294967295
-23.74312 1560.6733 777 4294967295
-22.590826 1560.7487 778 4294967295
-21.368807 1560.6733 777 4294967293
-20.181652 1560.6733 777 4294967295
-19.141285 1561.0496 782 4294967032
-18.027523 1561.2753 785 4294898670
-16.825687 1561.2753 785 4294502619
126.19266 1561.2753 785 4292399598
126.81101 1561.0496 782 4292334053
127.61468 1560.899 780 4292531689
128.60918 1560.8239 779 4292400337
129.60001 1560.7487 778 4288123792
130.78899 1560.7487 778 4288516249
131.77431 1560.6733 777 4292332243
132.75597 1560.5981 776 4293056736
133.52661 1560.4478 774 4293517287
134.49908 1560.3724 773 4293516767
135.4679 1560.2972 772 4293385437
136.43303 1560.222 771 4293187806
137.60918 1560.222 771 4293385186
138.78532 1560.222 771 4293188317
139.96147 1560.222 771 4293056988
140.91743 1560.1467 770 4292792796
142.09174 1560.1467 770 4293187554
143.26605 1560.1467 770 4293187806
143.76331 1559.9211 767 4293121757
144.93211 1559.9211 767 4293121757
145.87157 1559.8458 766 4293385186
147.03853 1559.8458 766 4293253349
147.97247 1559.7706 765 4291345096
148.90276 1559.6954 764 4288386450
149.59267 1559.5449 762 4278190080
150.51376 1559.4697 761 4278190080
151.91193 1559.5449 762 4279703069
-46.385323 1558.3854 762 4294966770
-45.225689 1558.3854 762 4294963942
-44.066055 1558.3854 762 4294962916
-42.906422 1558.3854 762 4294962916
-41.746788 1558.3854 762 4294963425
-40.587154 1558.3854 762 4294966253
-39.614677 1558.6055 765 4294967037
-38.449543 1558.6055 765 4293385435
-37.343121 1558.679 766 4293713369
-36.176147 1558.679 766 4294967295
-35.009174 1558.679 766 4294967295
-33.895412 1558.7523 767 4294967295
-32.777981 1558.8257 768 4294967287
-31.60734 1558.8257 768 4294967295
-30.53211 1558.9725 770 4294967295
-29.403669 1559.0459 771 4294967295
-28.271559 1559.1193 772 4294964451
-27.13578 1559.1926 773 4294967290
-25.99633 1559.2661 774 4294967295
-24.814678 1559.2661 774 4294967295
-23.633028 1559.2661 774 4294967295
-22.555964 1559.4862 777 4294967295
-21.368807 1559.4862 777 4294967295
-20.181652 1559.4862 777 4294967295
-18.994495 1559.4862 777 4294967295
-18 1560 784 4294967036
-16.799999 1560 784 4294569192
124.8 1560 784 4291547368
125.80734 1559.9266 783 4290889437
126.42202 1559.7064 780 4291413733
127.41835 1559.6331 779 4291611368
128.41101 1559.5596 778 4291215297
129.39999 1559.4862 777 4288583578
130.58716 1559.4862 777 4288976037
131.1633 1559.2661 774 4292923360
132.13945 1559.1926 773 4293188065
133.11192 1559.1193 772 4293253858
134.2899 1559.1193 772 4293253597
135.25688 1559.0459 771 4293319390
136.43303 1559.0459 771 4293253597
137.3945 1558.9725 770 4293319390
138.5688 1558.9725 770 4293254112
139.74312 1558.9725 770 4293056734
140.91743 1558.9725 770 4292923864
141.64771 1558.8257 768 4293318622
142.5945 1558.7523 767 4293318368
143.53761 1558.679 766 4293318368
144.47707 1558.6055 765 4293187806
145.6422 1558.6055 765 4293385186
146.80734 1558.6055 765 4293187813
147.27339 1558.3854 762 4292398554
148.43303 1558.3854 762 4288453801
149.35596 1558.3119 761 4278190085
150.51376 1558.3119 761 4278190080
151.67155 1558.3119 761 4278980377
-46.385323 1557.2257 762 4294963944
-45.225689 1557.2257 762 4294897123
-44.066055 1557.2257 762 4294831328
-42.906422 1557.2257 762 4294699999
-41.746788 1557.2257 762 4294961887
-40.587154 1557.2257 762 4294963943
-39.427525 1557.2257 762 4294898158
-38.267891 1557.2257 762 4293648092
-37.225689 1557.3688 764 4293319894
-36.119267 1557.4404 765 4294898670
-35.009174 1557.512 766 4294967290
-33.842201 1557.512 766 4294967295
-32.726604 1557.5835 767 4294967290
-31.557798 1557.5835 767 4294967295
-30.436697 1557.655 768 4294967295
-29.357798 1557.7982 770 4294967295
-28.227524 1557.8698 771 4294967292
-27.093578 1557.9413 772 4294967289
-25.955963 1558.0128 773 4294967288
-24.776146 1558.0128 773 4294967294
-23.596331 1558.0128 773 4294967295
-22.521101 1558.2275 776 4294967295
-21.335779 1558.2275 776 4294967295
-20.150459 1558.2275 776 4294967295
-18.965137 1558.2275 776 4294967295
-17.807339 1558.2991 777 4294967295
-16.491743 1557.9413 772 4294568942
-15.313762 1557.9413 772 4294305769
123.22202 1558.6569 782 4290757336
124.41835 1558.6569 782 4290757336
125.0367 1558.4423 779 4291481315
126.22752 1558.4423 779 4292005874
127.22202 1558.3706 778 4291347688
128.21284 1558.2991 777 4290491056
129.2 1558.2275 776 4288648852
130.38531 1558.2275 776 4289963960
130.95964 1558.0128 773 4293450990
131.93394 1557.9413 772 4293582562
132.90459 1557.8698 771 4293319390
134.08073 1557.8698 771 4293384417
135.04587 1557.7982 770 4293384417
136.22018 1557.7982 770 4293253597
137.3945 1557.7982 770 4293714148
138.13577 1557.655 768 4293385186
139.30643 1557.655 768 4293187806
140.47707 1557.655 768 4293253599
141.42569 1557.5835 767 4293516515
142.37064 1557.512 766 4293582310
143.31192 1557.4404 765 4293187552
144.47707 1557.4404 765 4293187806
145.41284 1557.3688 764 4293845737
146.57614 1557.3688 764 4293319140
147.27339 1557.2257 762 4292792796
148.19817 1557.1542 761 4290754485
149.11926 1557.0825 760 4279437833
150.27522 1557.0825 760 4278190080
151.4312 1557.0825 760 4279176986
-45.225689 1556.066 762 4294962918
-44.066055 1556.066 762 4294765021
-42.906422 1556.066 762 4294962657
-41.746788 1556.066 762 4294896862
-40.522934 1555.9963 761 4294962655
-39.427525 1556.066 762 4294437859
-38.267891 1556.066 762 4293779673
-37.108257 1556.066 762 4293188054
-36.062386 1556.2056 764 4293253847
-34.954128 1556.2753 765 4294964449
-33.735779 1556.2056 764 4294967286
-32.675228 1556.345 766 4294967291
-31.508257 1556.345 766 4294967295
-30.38899 1556.4147 767 4294967295
-29.266054 1556.4844 768 4294967295
-28.095413 1556.4844 768 4294967295
-27.051376 1556.6936 771 4294967295
-25.915596 1556.7633 772 4294967272
-24.737616 1556.7633 772 4294967289
-23.559633 1556.7633 772 4294967295
-22.416513 1556.833 773 4294967295
-21.269724 1556.9027 774 4294967295
-20.088074 1556.9027 774 4294967295
-18.906422 1556.9027 774 4294967295
-17.697248 1556.833 773 4294967295
-16.491743 1556.7633 772 4294767604
-15.313762 1556.7633 772 4294241259
-14.135779 1556.7633 772 4294042077
122.65504 1557.2513 779 4290427342
123.84587 1557.2513 779 4289376716
124.65137 1557.1119 777 4291284713
125.83853 1557.1119 777 4292268280
126.82936 1557.0422 776 4290360027
128.01468 1557.0422 776 4289896859
128.8 1556.9027 774 4290028446
129.98166 1556.9027 774 4290950342
130.75597 1556.7633 772 4293516013
131.72844 1556.6936 771 4293582562
132.69725 1556.6239 770 4293187804
133.87157 1556.6239 770 4293252316
135.04587 1556.6239 770 4293449695
135.79449 1556.4844 768 4293383900
136.96513 1556.4844 768 4293449693
137.91927 1556.4147 767 4293385186
139.08807 1556.4147 767 4293319392
140.0367 1556.345 766 4293385186
141.20367 1556.345 766 4293516515
142.14679 1556.2753 765 4293582308
143.31192 1556.2753 765 4293385186
144.24954 1556.2056 764 4292923866
144.95413 1556.066 762 4293318368
145.88257 1555.9963 761 4293187552
147.04036 1555.9963 761 4293121759
148.19817 1555.9963 761 4291278792
149.11926 1555.9266 760 4281870393
150.27522 1555.9266 760 4278190080
151.19083 1555.8569 759 4279241233
-43.99633 1554.8385 761 4294963427
-42.838531 1554.8385 761 4294967292
-41.680733 1554.8385 761 4294967295
-40.522934 1554.8385 761 4294967295
-39.365139 1554.8385 761 4294967289
-38.20734 1554.8385 761 4294966251
-37.108257 1554.9064 762 4294175212
-35.948624 1554.9064 762 4292727766
-34.78899 1554.9064 762 4293056988
-33.629356 1554.9064 762 4294967295
-32.572475 1555.0422 764 4294967294
-31.458715 1555.1101 765 4294967290
-30.293577 1555.1101 765 4294967295
-29.174313 1555.178 766 4294967295
-28.051376 1555.2458 767 4294967295
-26.92477 1555.3137 768 4294967295
-25.834862 1555.4496 770 4294967024
-24.699083 1555.5175 771 4294967295
-23.522936 1555.5175 771 4294967295
-22.381651 1555.5853 772 4294967295
-21.236698 1555.6532 773 4294967295
-20.056881 1555.6532 773 4294967295
-18.877064 1555.6532 773 4294967295
-17.669725 1555.5853 772 4294967295
-16.491743 1555.5853 772 4294967039
-15.313762 1555.5853 772 4294964985
-14.135779 1555.5853 772 4294239459
122.27706 1555.9248 777 4288519872
123.46422 1555.9248 777 4289704914
124.45872 1555.8569 776 4292600062
125.64404 1555.8569 776 4292467188
126.4367 1555.7211 774 4287993265
127.61835 1555.7211 774 4288912801
128.60001 1555.6532 773 4291215556
129.57799 1555.5853 772 4291937501
130.55229 1555.5175 771 4293253360
131.52293 1555.4496 770 4293122009
132.28256 1555.3137 768 4292661458
133.45322 1555.3137 768 4292988892
134.62386 1555.3137 768 4293317857
135.79449 1555.3137 768 4293187289
136.75046 1555.2458 767 4293318874
137.70276 1555.178 766 4293055964
138.86972 1555.178 766 4292858841
139.81651 1555.1101 765 4293318622
140.98166 1555.1101 765 4293647844
142.14679 1555.1101 765 4293385184
143.08624 1555.0422 764 4293385184
143.79449 1554.9064 762 4293055199
144.72478 1554.8385 761 4293121248
145.88257 1554.8385 761 4293253599
146.80734 1554.7706 760 4293253599
147.9633 1554.7706 760 4291739856
149.11926 1554.7706 760 4282989387
150.27522 1554.7706 760 4278190083
151.19083 1554.7028 759 4279109399
-42.770641 1553.6146 760 4294967295
-41.614677 1553.6146 760 4294967295
-40.458717 1553.6146 760 4294967295
-39.302753 1553.6146 760 4294967295
-38.20734 1553.6808 761 4294967295
-37.049541 1553.6808 761 4294967295
-35.834862 1553.6146 760 4293716712
-34.733944 1553.6808 761 4293318357
-33.576145 1553.6808 761 4294964980
-32.469727 1553.7468 762 4294967294
-31.409174 1553.8789 764 4294967295
-30.245872 1553.8789 764 4294967295
-29.082569 1553.8789 764 4294967295
-27.963303 1553.9449 765 4294967295
-26.840366 1554.011 766 4294967295
-25.713762 1554.077 767 4294967294
-24.583487 1554.1431 768 4294967295
-23.486238 1554.2753 770 4294967295
-22.346788 1554.3413 771 4294967295
-21.203671 1554.4073 772 4294967295
-20.025688 1554.4073 772 4294967295
-18.847706 1554.4073 772 4294967295
-17.669725 1554.4073 772 4294967295
-16.491743 1554.4073 772 4294967295
-15.313762 1554.4073 772 4294967295
-14.113762 1554.3413 771 4294700523
-12.937614 1554.3413 771 4293977056
120.52844 1554.5394 774 4288191423
122.08807 1554.6715 776 4288849609
123.27339 1554.6715 776 4289902311
124.07339 1554.5394 774 4292205055
125.06055 1554.4734 773 4292467688
126.24036 1554.4734 773 4288454572
127.22202 1554.4073 772 4289437855
128.2 1554.3413 771 4292529870
129.37614 1554.3413 771 4292465630
130.34862 1554.2753 770 4292794595
131.52293 1554.2753 770 4293121498
132.28256 1554.1431 768 4292923862
133.45322 1554.1431 768 4293120473
134.41284 1554.077 767 4293252316
135.3688 1554.011 766 4292990420
136.75046 1554.077 767 4292990420
137.70276 1554.011 766 4293055453
138.65138 1553.9449 765 4293055453
139.59633 1553.8789 764 4293186271
140.75963 1553.8789 764 4293186271
141.92294 1553.8789 764 4292858323
142.63486 1553.7468 762 4292989909
143.56697 1553.6808 761 4292859355
144.49541 1553.6146 760 4292990941
145.88257 1553.6808 761 4293319390
146.80734 1553.6146 760 4293516769
147.9633 1553.6146 760 4292265689
148.88257 1553.5486 759 4284041307
150.0367 1553.5486 759 4278648833
151.19083 1553.5486 759 4278910982
-41.614677 1552.4587 760 4294966753
-40.458717 1552.4587 760 4294967267
-39.302753 1552.4587 760 4294967295
-38.14679 1552.4587 760 4294967295
-36.990826 1552.4587 760 4294967295
-35.834862 1552.4587 760 4294967295
-34.678898 1552.4587 760 4294503149
-33.576145 1552.5229 761 4293450460
-32.41835 1552.5229 761 4294964204
-31.310091 1552.5872 762 4294967295
-30.150459 1552.5872 762 4294967295
-28.990826 1552.5872 762 4294967295
-27.963303 1552.7798 765 4294967295
-26.840366 1552.844 766 4294967295
-25.673395 1552.844 766 4294967295
-24.583487 1552.9725 768 4294967295
-23.412844 1552.9725 768 4294967285
-22.346788 1553.1652 771 4294967295
-21.203671 1553.2294 772 4294967295
-20.025688 1553.2294 772 4294967295
-18.847706 1553.2294 772 4294967295
-17.669725 1553.2294 772 4294967295
-16.491743 1553.2294 772 4294967290
-15.313762 1553.2294 772 4294967295
-14.113762 1553.1652 771 4294966009
-12.937614 1553.1652 771 4294307051
-11.761468 1553.1652 771 4293910478
-10.585321 1553.1652 771 4294042320
120.52844 1553.3578 774 4288649664
121.71009 1553.3578 774 4290491868
122.70092 1553.2936 773 4291676921
123.88074 1553.2936 773 4291874299
124.67156 1553.1652 771 4290888383
125.84771 1553.1652 771 4287401098
126.82569 1553.101 770 4289569702
128 1553.101 770 4292530644
128.77065 1552.9725 768 4292857817
129.94128 1552.9725 768 4292989659
130.90642 1552.9082 767 4292989655
132.07523 1552.9082 767 4292989655
133.03487 1552.844 766 4293055705
134.20183 1552.844 766 4293055705
135.15596 1552.7798 765 4292924114
136.53578 1552.844 766 4292989907
137.48624 1552.7798 765 4293121248
138.43303 1552.7156 764 4293515750
138.93578 1552.5229 761 4293186789
139.87157 1552.4587 760 4293055203
141.02753 1552.4587 760 4292858069
142.40918 1552.5229 761 4292989655
143.11192 1552.3945 759 4292990169
144.0367 1552.3303 758 4293056218
145.189 1552.3303 758 4293121496
146.34128 1552.3303 758 4293779425
147.49358 1552.3303 758 4292923362
148.64587 1552.3303 758 4284765287
149.55963 1552.2661 757 4278648868
150.7101 1552.2661 757 4278452256
-40.394497 1551.2404 759 4294963163
-39.240368 1551.2404 759 4294965484
-38.086239 1551.2404 759 4294967286
-36.93211 1551.2404 759 4294967295
-35.834862 1551.3027 760 4294967295
-34.678898 1551.3027 760 4294899188
-33.576145 1551.3651 761 4292859604
-32.41835 1551.3651 761 4293711818
-31.26055 1551.3651 761 4294967283
-30.150459 1551.4275 762 4294967295
-28.990826 1551.4275 762 4294967295
-27.919266 1551.5522 764 4294967295
-26.67156 1551.4275 762 4294967295
-25.633028 1551.6146 765 4294967295
-24.544954 1551.7395 767 4294967295
-23.376146 1551.7395 767 4294967294
-22.242203 1551.8019 768 4294967295
-21.137615 1551.9266 770 4294967295
-19.963303 1551.9266 770 4294967295
-18.818348 1551.989 771 4294967295
-17.642202 1551.989 771 4294967295
-16.466055 1551.989 771 4294967295
-15.289908 1551.989 771 4294967295
-14.113762 1551.989 771 4294967295
-12.937614 1551.989 771 4294965750
-11.761468 1551.989 771 4293977820
-10.585321 1551.989 771 4293977820
119.16147 1552.1138 773 4288319929
120.15413 1552.0514 772 4287794629
121.33211 1552.0514 772 4291216122
122.51009 1552.0514 772 4292005885
123.49541 1551.989 771 4290295268
124.67156 1551.989 771 4289438344
125.65137 1551.9266 770 4289635466
126.82569 1551.9266 770 4290950324
127.6 1551.8019 768 4292858321
128.5688 1551.7395 767 4292791763
129.53395 1551.677 766 4292989398
130.70091 1551.677 766 4292923862
131.86789 1551.677 766 4292923862
132.82568 1551.6146 765 4292990171
133.99083 1551.6146 765 4292990171
135.15596 1551.6146 765 4292859091
136.10641 1551.5522 764 4292859091
136.8367 1551.4275 762 4292989659
137.77798 1551.3651 761 4293055453
138.93578 1551.3651 761 4292990173
140.09358 1551.3651 761 4292990173
140.57982 1551.178 758 4292990169
141.73212 1551.178 758 4292990169
142.65688 1551.1156 757 4293056218
143.80734 1551.1156 757 4292990169
144.95779 1551.1156 757 4292463313
146.10826 1551.1156 757 4293581795
146.78899 1550.9908 755 4293253349
148.40918 1551.1156 757 4285226347
149.08257 1550.9908 755 4283179062
-37.965137 1549.9651 757 4294963685
-36.814678 1549.9651 757 4294964197
-35.7211 1550.0256 758 4294964968
-34.568806 1550.0256 758 4294964462
-33.522934 1550.1467 760 4293910746
-32.315598 1550.0862 759 4293843919
-31.21101 1550.1467 760 4294633435
-30.102753 1550.2074 761 4294966003
-28.944954 1550.2074 761 4294967295
-27.831192 1550.2679 762 4294967295
-26.67156 1550.2679 762 4294967295
-25.592661 1550.389 764 4294967295
-24.506422 1550.5101 766 4294967295
-23.339449 1550.5101 766 4294967295
-22.172478 1550.5101 766 4294967295
-21.07156 1550.6312 768 4294967294
-19.900917 1550.6312 768 4294967295
-18.78899 1550.7523 770 4294967295
-17.614679 1550.7523 770 4294967295
-16.440367 1550.7523 770 4294967295
-15.289908 1550.8129 771 4294967295
-14.113762 1550.8129 771 4294967295
-12.937614 1550.8129 771 4294967294
-11.761468 1550.8129 771 4294570220
-10.585321 1550.8129 771 4293912547
-9.409174 1550.8129 771 4293581267
117.98165 1550.934 773 4288452284
119.16147 1550.934 773 4289110215
120.15413 1550.8734 772 4290161131
121.14312 1550.8129 771 4293055999
122.31927 1550.8129 771 4292332790
123.49541 1550.8129 771 4287924403
124.47707 1550.7523 770 4287530349
125.65137 1550.7523 770 4291148707
126.42936 1550.6312 768 4291805636
127.4 1550.5707 767 4292924116
128.36697 1550.5101 766 4292857808
129.53395 1550.5101 766 4292792015
130.70091 1550.5101 766 4292726740
131.66055 1550.4496 765 4292923862
132.82568 1550.4496 765 4292858841
133.77982 1550.389 764 4293253599
134.94312 1550.389 764 4292858839
135.67706 1550.2679 762 4292858839
136.8367 1550.2679 762 4292989655
137.77798 1550.2074 761 4292923862
138.71559 1550.1467 760 4292793298
139.42752 1550.0256 758 4292990420
140.35596 1549.9651 757 4292989655
141.50642 1549.9651 757 4292923862
142.20183 1549.844 755 4292990423
143.34862 1549.844 755 4293056216
144.49541 1549.844 755 4293055705
145.6422 1549.844 755 4293647842
146.78899 1549.844 755 4293319138
147.93578 1549.844 755 4287989905
149.08257 1549.844 755 4282722912
-36.697247 1548.6973 755 4294961882
-35.550457 1548.6973 755 4294963424
-34.51376 1548.8147 757 4294964204
-33.363304 1548.8147 757 4294962405
-32.212845 1548.8147 757 4294238425
-31.111927 1548.8734 758 4293514959
-30.055046 1548.9908 760 4294370777
-28.899082 1548.9908 760 4294967288
-27.787155 1549.0496 761 4294967295
-26.629358 1549.0496 761 4294967295
-25.511927 1549.1083 762 4294967295
-24.429358 1549.2257 764 4294967295
-23.266054 1549.2257 764 4294967295
-22.137615 1549.2844 765 4294967295
-21.038532 1549.4019 767 4294967290
-19.869724 1549.4019 767 4294967295
-18.730276 1549.4606 768 4294967295
-17.614679 1549.578 770 4294967295
-16.440367 1549.578 770 4294967295
-15.266055 1549.578 770 4294967295
-14.091743 1549.578 770 4294967295
-12.917431 1549.578 770 4294967295
-11.743119 1549.578 770 4294966261
-10.568808 1549.578 770 4294110953
-9.394495 1549.578 770 4293515472
-8.2201834 1549.578 770 4293712851
117.98165 1549.7542 773 4288059838
118.97615 1549.6954 772 4289244113
119.96697 1549.6367 771 4291344878
121.14312 1549.6367 771 4292200187
122.12844 1549.578 770 4291936717
123.30275 1549.578 770 4288252309
124.08807 1549.4606 768 4287528811
125.06239 1549.4019 767 4291871149
126.03303 1549.3431 766 4292199623
127.2 1549.3431 766 4292791761
128.16513 1549.2844 765 4292857806
129.33028 1549.2844 765 4292726219
130.49541 1549.2844 765 4292660945
131.45322 1549.2257 764 4292924116
132.19817 1549.1083 762 4292793046
133.14679 1549.0496 761 4292858839
134.09174 1548.9908 760 4292595154
135.24771 1548.9908 760 4292726740
136.18715 1548.9321 759 4292594900
137.12294 1548.8734 758 4292923864
138.05504 1548.8147 757 4292859091
138.76147 1548.6973 755 4292990420
139.90826 1548.6973 755 4292793046
141.05504 1548.6973 755 4292661460
142.20183 1548.6973 755 4292791763
143.11926 1548.6385 754 4292923349
144.26422 1548.6385 754 4293121244
145.40918 1548.6385 754 4293516002
146.31926 1548.5798 753 4293450210
147.69908 1548.6385 754 4288778907
148.84404 1548.6385 754 4285551203
-36.638531 1547.4935 754 4294962653
-35.49358 1547.4935 754 4294964452
-34.348625 1547.4935 754 4294965228
-33.203671 1547.4935 754 4294966514
-32.110092 1547.5504 755 4294700777
-30.963303 1547.5504 755 4293450710
-29.959633 1547.7211 758 4293385949
-28.85321 1547.778 759 4294833395
-27.699083 1547.778 759 4294967288
-26.587156 1547.8348 760 4294967295
-25.47156 1547.8917 761 4294967295
-24.313761 1547.8917 761 4294967295
-23.192661 1547.9486 762 4294967295
-22.033028 1547.9486 762 4294967295
-20.972477 1548.1193 765 4294967295
-19.807339 1548.1193 765 4294967295
-18.700918 1548.233 767 4294967295
-17.53211 1548.233 767 4294967295
-16.38899 1548.2899 768 4294967295
-15.218349 1548.2899 768 4294967295
-14.091743 1548.4037 770 4294967295
-12.917431 1548.4037 770 4294967295
-11.743119 1548.4037 770 4294967295
-10.568808 1548.4037 770 4294901241
-9.3651381 1548.2899 768 4294438373
-8.1944952 1548.2899 768 4293648857
-7.056881 1548.4606 771 4293843669
116.43853 1548.4606 771 4288583880
117.61468 1548.4606 771 4288716224
118.60551 1548.4037 770 4290887137
119.77982 1548.4037 770 4291215075
120.57615 1548.2899 768 4289372871
122.12844 1548.4037 770 4288647806
123.30275 1548.4037 770 4288910977
124.08807 1548.2899 768 4289830060
124.86606 1548.1761 766 4292593366
126.03303 1548.1761 766 4292396996
127 1548.1193 765 4292725704
128.16513 1548.1193 765 4292660424
129.1266 1548.0624 764 4292660424
130.2899 1548.0624 764 4292595150
131.03853 1547.9486 762 4293055700
131.989 1547.8917 761 4292793298
133.14679 1547.8917 761 4292859091
134.09174 1547.8348 760 4292858069
135.03302 1547.778 759 4292989655
135.97064 1547.7211 758 4292726742
136.90459 1547.6642 757 4292989657
138.05504 1547.6642 757 4292859091
138.76147 1547.5504 755 4293188056
139.90826 1547.5504 755 4292858069
140.82936 1547.4935 754 4292660947
141.97432 1547.4935 754 4292726742
143.11926 1547.4935 754 4292726742
144.03302 1547.4366 753 4292923612
145.17615 1547.4366 753 4293384163
146.0844 1547.3798 752 4293319392
147.22569 1547.3798 752 4290029742
-36.521099 1546.2385 752 4294963173
-35.436699 1546.2936 753 4294963173
-34.293579 1546.2936 753 4294963173
-33.150459 1546.2936 753 4294965486
-32.007339 1546.2936 753 4294965488
-30.86422 1546.2936 753 4294240994
-29.768806 1546.3486 754 4293319640
-28.761467 1546.5138 757 4293846240
-27.699083 1546.6239 759 4294965738
-26.587156 1546.679 760 4294967292
-25.431192 1546.679 760 4294967295
-24.275229 1546.679 760 4294967295
-23.155964 1546.7339 761 4294967295
-21.963303 1546.679 760 4294967295
-20.840366 1546.7339 761 4294967295
-19.68257 1546.7339 761 4294967295
-18.642202 1546.9541 765 4294967290
-17.477064 1546.9541 765 4294967295
-16.337614 1547.0092 766 4294967295
-15.194495 1547.0642 767 4294967295
-14.025688 1547.0642 767 4294967295
-12.877064 1547.1193 768 4294967295
-11.706422 1547.1193 768 4294967295
-10.53578 1547.1193 768 4294967295
-9.3651381 1547.1193 768 4294965749
-8.1944952 1547.1193 768 4294109669
-7.0238533 1547.1193 768 4293515218
-5.8440366 1547.0642 767 4293909976
114.72294 1547.1193 768 4288320962
116.25688 1547.2294 770 4288715720
117.43119 1547.2294 770 4289110226
118.23486 1547.1193 768 4290689514
119.4055 1547.1193 768 4291411155
120.38715 1547.0642 767 4287726747
121.36514 1547.0092 766 4288050530
122.33945 1546.9541 765 4291274387
123.31009 1546.899 764 4290949811
124.4734 1546.899 764 4292199621
125.6367 1546.899 764 4292263872
126.8 1546.899 764 4292592837
127.55963 1546.7889 762 4292265153
128.51559 1546.7339 761 4292528325
129.87891 1546.7889 762 4292595150
130.83119 1546.7339 761 4292595150
131.77982 1546.679 760 4292595663
132.72478 1546.6239 759 4292727505
