# .PCD v0.7 - Point Cloud Data file format
VERSION 0.7
FIELDS x y z rgb
SIZE 4 4 4 4
TYPE F F F U
COUNT 1 1 1 1
WIDTH 1366
HEIGHT 1
VIEWPOINT 0 0 0 1 0 0 0
POINTS 1366
DATA ascii
-29.944954 1595.5963 810 4291870379
-28.781651 1595.8422 812 4292199601
122.63486 1595.8422 812 4286416045
123.52293 1595.5963 810 4286416045
124.58716 1595.4734 809 4286547628
125.64771 1595.3505 808 4286679215
126.51743 1595.1046 806 4286743976
127.56881 1594.9817 805 4286678183
128.80734 1594.9817 805 4286678185
129.85321 1594.8588 804 4287796667
130.70091 1594.6128 802 4289242048
131.93394 1594.6128 802 4292663284
132.96881 1594.4899 801 4293584107
134.2 1594.4899 801 4294636795
135.4312 1594.4899 801 4294505208
136.45871 1594.3669 800 4294044658
137.68808 1594.3669 800 4294110453
138.50275 1594.1211 798 4294044660
139.72844 1594.1211 798 4294109938
140.74312 1593.9982 797 4294438902
141.75414 1593.8752 796 4294307316
142.97615 1593.8752 796 4294373109
143.76514 1593.6294 794 4293847794
144.76514 1593.5065 793 4293782001
145.76147 1593.3835 792 4293847794
146.97615 1593.3835 792 4293979637
147.96698 1593.2605 791 4293979635
149.17981 1593.2605 791 4294374392
150.39265 1593.2605 791 4294176244
151.14679 1593.0146 789 4294176244
152.35596 1593.0146 789 4294109938
153.56514 1593.0146 789 4294307316
154.53944 1592.8917 788 4294176248
155.7468 1592.8917 788 4293978612
156.95413 1592.8917 788 4293716206
158.16147 1592.8917 788 4294176757
-66.100914 1591.321 785 4288587203
-64.899086 1591.321 785 4288848573
-63.697247 1591.321 785 4290296020
-62.495415 1591.321 785 4291872459
-61.293579 1591.321 785 4293912043
-60 1591.2 784 4294305754
-58.799999 1591.2 784 4294437596
-57.688072 1591.321 785 4293647825
-56.48624 1591.321 785 4293845205
-55.453213 1591.5634 787 4293911000
-54.247707 1591.5634 787 4293779158
-53.122936 1591.6844 788 4293450447
-51.915596 1591.6844 788 4294174170
-50.939449 1592.0477 791 4293518554
-49.726604 1592.0477 791 4289768353
-48.587154 1592.1688 792 4289899689
-47.444038 1592.2899 793 4292202444
-46.297249 1592.411 794 4292464067
-45.21468 1592.6532 796 4292003516
-44.058716 1592.7743 797 4292002735
-42.899082 1592.8954 798 4291739563
-41.673393 1592.8954 798 4291475621
-40.568806 1593.1376 800 4291607464
-39.339451 1593.1376 800 4291607716
-38.110092 1593.1376 800 4291870631
-36.93578 1593.2587 801 4291739563
-35.704586 1593.2587 801 4291607977
-34.524769 1593.3798 802 4291607464
-33.291744 1593.3798 802 4291541670
-32.154129 1593.6221 804 4291671719
-30.963303 1593.7432 805 4292000684
-29.768806 1593.8643 806 4291870631
123.52293 1594.3486 810 4286415016
124.58716 1594.2275 809 4286416047
125.64771 1594.1064 808 4286679219
126.51743 1593.8643 806 4286613676
127.7578 1593.8643 806 4286613676
128.80734 1593.7432 805 4286941612
129.85321 1593.6221 804 4287928507
130.70091 1593.3798 802 4288716735
131.93394 1593.3798 802 4292006385
132.96881 1593.2587 801 4292467427
134 1593.1376 800 4294112251
135.22935 1593.1376 800 4294373879
136.05138 1592.8954 798 4294110451
137.27707 1592.8954 798 4294175733
138.50275 1592.8954 798 4294109940
139.51927 1592.7743 797 4293978351
140.5321 1592.6532 796 4294175731
141.32845 1592.411 794 4294044144
142.54678 1592.411 794 4294175731
143.76514 1592.411 794 4293715695
144.54678 1592.1688 792 4293847281
145.54129 1592.0477 791 4293847794
146.75414 1592.0477 791 4293979637
147.96698 1592.0477 791 4293717232
148.72844 1591.8055 789 4293980148
149.93762 1591.8055 789 4293979635
151.14679 1591.8055 789 4293979635
152.35596 1591.8055 789 4293848048
153.33211 1591.6844 788 4293848048
154.53944 1591.6844 788 4293978612
155.7468 1591.6844 788 4293847283
156.71559 1591.5634 787 4293715695
157.9211 1591.5634 787 4294307832
-66.30275 1590.3578 787 4289178820
-64.899086 1590.1193 785 4289046720
-63.697247 1590.1193 785 4290888924
-62.400002 1590 784 4291939788
-61.200001 1590 784 4294176750
-60 1590 784 4294372314
-58.799999 1590 784 4294569694
-57.599998 1590 784 4294239961
-56.48624 1590.1193 785 4294305754
-55.453213 1590.3578 787 4294305758
-54.247707 1590.3578 787 4294305758
-53.042202 1590.3578 787 4293976021
-51.915596 1590.4771 788 4294107863
-50.939449 1590.8348 791 4293320909
-49.726604 1590.8348 791 4289899417
-48.587154 1590.9541 792 4290491586
-47.444038 1591.0734 793 4292662755
-46.227524 1591.0734 793 4292792765
-45.078899 1591.1926 794 4292200627
-43.992661 1591.4312 796 4291871401
-42.834862 1591.5504 797 4291871401
-41.611008 1591.5504 797 4291739050
-40.447708 1591.6697 798 4291870379
-39.222019 1591.6697 798 4291935913
-38.110092 1591.9082 800 4292001706
-36.880733 1591.9082 800 4291870379
-35.651375 1591.9082 800 4291739050
-34.473396 1592.0275 801 4292002219
-33.242203 1592.0275 801 4292462770
-32.154129 1592.3854 804 4292199853
-30.963303 1592.5046 805 4292396975
-29.85688 1592.8624 808 4292462255
-28.697248 1593.101 810 4292593840
123.52293 1593.101 810 4286021803
124.58716 1592.9817 809 4286482104
125.64771 1592.8624 808 4286942655
126.51743 1592.6239 806 4286745264
127.56881 1592.5046 805 4286811057
128.80734 1592.5046 805 4286811053
129.85321 1592.3854 804 4287798204
130.70091 1592.1467 802 4288716735
131.73761 1592.0275 801 4291019490
132.96881 1592.0275 801 4292400348
134 1591.9082 800 4294308345
135.22935 1591.9082 800 4294374392
136.05138 1591.6697 798 4294440186
137.07156 1591.5504 797 4294110453
138.08807 1591.4312 796 4294110453
139.31009 1591.4312 796 4294110453
140.11009 1591.1926 794 4294373625
141.1156 1591.0734 793 4294308086
142.54678 1591.1926 794 4294373879
143.33211 1590.9541 792 4294110453
144.32845 1590.8348 791 4294242039
145.54129 1590.8348 791 4294110451
146.31009 1590.5963 789 4294308086
147.51927 1590.5963 789 4293979635
148.72844 1590.5963 789 4293979635
149.93762 1590.5963 789 4293913842
150.91743 1590.4771 788 4293913842
152.12477 1590.4771 788 4293847281
152.63303 1590.1193 785 4293781488
154.30458 1590.3578 787 4293847283
155.0367 1590.1193 785 4293847283
156.23853 1590.1193 785 4293912306
157.44037 1590.1193 785 4294307064
-64.899086 1588.9175 785 4288455866
-63.405506 1588.5652 782 4290890208
-62.209175 1588.5652 782 4292071890
-61.012844 1588.5652 782 4293782251
-59.908257 1588.6826 783 4293847002
-58.710091 1588.6826 783 4294110173
-57.511925 1588.6826 783 4294436822
-56.313763 1588.6826 783 4294568664
-55.453213 1589.1523 787 4294502106
-54.247707 1589.1523 787 4294502106
-53.122936 1589.2698 788 4294107611
-51.994495 1589.3872 789 4294041818
-50.78532 1589.3872 789 4292267719
-49.726604 1589.6221 791 4290162344
-48.51376 1589.6221 791 4291147453
-47.372478 1589.7395 792 4293055451
-46.157799 1589.7395 792 4292858049
-45.011009 1589.8569 793 4292265655
-43.992661 1590.2092 796 4291674022
-42.770641 1590.2092 796 4291805608
-41.611008 1590.3267 797 4292066468
-40.387157 1590.3267 797 4292263590
-39.163303 1590.3267 797 4292263590
-37.939449 1590.3267 797 4292132261
-36.770641 1590.4441 798 4292066214
-35.544952 1590.4441 798 4292263592
-34.42202 1590.679 800 4292002217
-33.242203 1590.7964 801 4292331182
-32.058716 1590.9138 802 4292002982
-30.917431 1591.1487 804 4292266411
-29.768806 1591.3835 806 4292331954
124.58716 1591.7358 809 4286613172
125.64771 1591.6184 808 4286810807
126.51743 1591.3835 806 4286351015
127.56881 1591.2661 805 4286745773
128.23486 1590.9138 802 4286876848
129.4679 1590.9138 802 4287732157
130.50642 1590.7964 801 4288650944
131.54129 1590.679 800 4290953443
132.77065 1590.679 800 4292072149
133.60001 1590.4441 798 4294046195
134.82568 1590.4441 798 4294374392
135.64404 1590.2092 796 4294308599
136.86606 1590.2092 796 4293979637
137.6734 1589.9744 794 4293913588
138.89174 1589.9744 794 4293913588
139.89908 1589.8569 793 4294242552
141.1156 1589.8569 793 4294373879
142.33211 1589.8569 793 4294505208
143.33211 1589.7395 792 4293978866
144.32845 1589.6221 791 4293978866
145.10092 1589.3872 789 4293846513
146.31009 1589.3872 789 4294043892
147.51927 1589.3872 789 4293978864
148.72844 1589.3872 789 4293978864
149.7101 1589.2698 788 4293716208
150.91743 1589.2698 788 4293913588
151.4312 1588.9175 785 4293782001
152.39999 1588.8 784 4293716208
153.83487 1588.9175 785 4293649902
155.0367 1588.9175 785 4293649902
156 1588.8 784 4293715182
157.2 1588.8 784 4293846511
-64.70092 1587.4844 783 4290361546
-63.405506 1587.3688 782 4292335337
-62.209175 1587.3688 782 4293385701
-61.012844 1587.3688 782 4294372596
-59.816513 1587.3688 782 4294503651
-58.620182 1587.3688 782 4294966258
-57.511925 1587.4844 783 4294965735
-56.313763 1587.4844 783 4294966250
-55.284405 1587.7156 785 4294964963
-54.247707 1587.9468 787 4294963421
-53.042202 1587.9468 787 4294964200
-51.915596 1588.0624 788 4293516753
-50.708256 1588.0624 788 4292070091
-49.576145 1588.178 789 4291346111
-48.51376 1588.4092 791 4291872457
-47.372478 1588.5248 792 4293254110
-46.157799 1588.5248 792 4292989376
-44.943119 1588.5248 792 4292397496
-43.86055 1588.756 794 4291937710
-42.6422 1588.756 794 4292003503
-41.548622 1588.9872 796 4292330671
-40.326607 1588.9872 796 4292462257
-39.163303 1589.1028 797 4292329904
-37.939449 1589.1028 797 4292593075
-36.715595 1589.1028 797 4292396977
-35.491745 1589.1028 797 4292791735
-34.42202 1589.4496 800 4292529329
-33.192661 1589.4496 800 4292660915
-31.963303 1589.4496 800 4292464304
-30.779816 1589.5652 801 4292530097
-29.768806 1590.1431 806 4292792251
-28.612844 1590.3743 808 4292858045
124.40367 1590.3743 808 4286547630
125.09174 1590.0275 805 4286876596
126.14312 1589.9119 804 4286350502
127.00183 1589.6808 802 4286811053
128.04404 1589.5652 801 4286877102
129.27522 1589.5652 801 4287666362
130.31192 1589.4496 800 4288453820
131.54129 1589.4496 800 4290493146
132.37431 1589.2184 798 4291282124
133.39999 1589.1028 797 4294045430
134.62386 1589.1028 797 4294440184
135.64404 1588.9872 796 4294242804
136.45505 1588.756 794 4294176759
137.6734 1588.756 794 4294045430
138.68257 1588.6404 793 4294176244
139.68808 1588.5248 792 4294242293
140.90276 1588.5248 792 4294373879
142.11743 1588.5248 792 4294768637
143.1156 1588.4092 791 4294044660
144.32845 1588.4092 791 4294176246
145.10092 1588.178 789 4293847796
146.08807 1588.0624 788 4293782003
147.29541 1588.0624 788 4293782003
148.27707 1587.9468 787 4293782003
149.48257 1587.9468 787 4293847794
150.22935 1587.7156 785 4294176759
151.4312 1587.7156 785 4293716208
152.39999 1587.6 784 4293716208
153.60001 1587.6 784 4293715180
154.56331 1587.4844 783 4293715180
155.04587 1587.1376 780 4293846511
156.71927 1587.3688 782 4293846511
157.9156 1587.3688 782 4293715182
-65.798164 1586.1725 782 4289507782
-64.601837 1586.1725 782 4290623678
-63.405506 1586.1725 782 4293321191
-62.209175 1586.1725 782 4294437607
-61.012844 1586.1725 782 4294569194
-59.816513 1586.1725 782 4294962403
-58.620182 1586.1725 782 4294966514
-57.423855 1586.1725 782 4294966252
-56.313763 1586.2863 783 4294966766
-55.200001 1586.4 784 4294966513
-54.082569 1586.5138 785 4294966256
-52.880733 1586.5138 785 4294899955
-51.836697 1586.7413 787 4293189337
-50.708256 1586.8551 788 4291807166
-49.500916 1586.8551 788 4291807166
-48.51376 1587.1963 791 4292727503
-47.372478 1587.3101 792 4293253847
-46.157799 1587.3101 792 4292596155
-44.943119 1587.3101 792 4292464569
-43.794495 1587.4238 793 4292331700
-42.57798 1587.4238 793 4292265907
-41.361469 1587.4238 793 4292396462
-40.326607 1587.7651 796 4292396462
-39.104588 1587.7651 796 4292461487
-37.882568 1587.7651 796 4292593073
-36.715595 1587.8789 797 4292265909
-35.491745 1587.8789 797 4292594618
-34.319267 1587.9927 798 4292136118
-33.192661 1588.2202 800 4292333497
-31.963303 1588.2202 800 4292399546
-30.779816 1588.334 801 4292399546
-29.592661 1588.4478 802 4292726719
-28.486238 1588.7889 805 4292924355
125.27706 1588.9027 806 4286416045
126.33028 1588.7889 805 4286349219
126.81284 1588.334 801 4287204527
128.04404 1588.334 801 4287138734
129.27522 1588.334 801 4287665078
130.31192 1588.2202 800 4288255932
131.14862 1587.9927 798 4290229979
132.17615 1587.8789 797 4291412938
133.2 1587.7651 796 4294110451
134.42201 1587.7651 796 4294440184
135.23669 1587.5376 794 4294242804
136.45505 1587.5376 794 4294242293
137.46605 1587.4238 793 4294242293
138.68257 1587.4238 793 4294242293
139.68808 1587.3101 792 4294242293
140.90276 1587.3101 792 4294373879
141.90276 1587.1963 791 4294308086
143.1156 1587.1963 791 4293847535
143.89174 1586.9688 789 4294110451
144.88074 1586.8551 788 4293913842
146.08807 1586.8551 788 4293716206
147.07156 1586.7413 787 4293519597
147.82568 1586.5138 785 4293717232
149.02753 1586.5138 785 4293847794
150 1586.4 784 4293716208
150.96881 1586.2863 783 4293584879
152.16698 1586.2863 783 4293716208
153.13028 1586.1725 782 4293781742
153.85321 1585.9449 780 4293847535
155.04587 1585.9449 780 4294044144
156.23853 1585.9449 780 4293649387
157.4312 1585.9449 780 4293583595
-64.601837 1584.9762 782 4291414485
-63.405506 1584.9762 782 4294243583
-62.209175 1584.9762 782 4294833647
-61.012844 1584.9762 782 4294702060
-59.816513 1584.9762 782 4294964717
-58.440369 1584.7523 780 4294967295
-57.423855 1584.9762 782 4294967295
-56.313763 1585.0881 783 4294967295
-55.115597 1585.0881 783 4294967295
-54 1585.2 784 4294967292
-52.880733 1585.3119 785 4294966776
-51.678898 1585.3119 785 4293255131
-50.631191 1585.5358 787 4291939016
-49.500916 1585.6477 788 4292597202
-48.51376 1585.9835 791 4293385169
-47.372478 1586.0955 792 4293385169
-46.157799 1586.0955 792 4292792251
-44.943119 1586.0955 792 4292989630
-43.728439 1586.0955 792 4292398009
-42.51376 1586.0955 792 4292463802
-41.299084 1586.0955 792 4292528312
-40.144955 1586.2073 793 4292660154
-38.987156 1586.3192 794 4292462259
-37.882568 1586.5431 796 4292725175
-36.660549 1586.5431 796 4292594107
-35.438534 1586.5431 796 4292857278
-34.267891 1586.655 797 4292529595
-33.093578 1586.767 798 4292858560
-31.867889 1586.767 798 4292727494
-30.825687 1587.2147 802 4293319374
-29.680735 1587.4385 804 4293252804
-28.444036 1587.4385 804 4293252804
125.27706 1587.6624 806 4286679217
126.14312 1587.4385 804 4286941360
126.81284 1587.1028 801 4287401911
127.85321 1586.9908 800 4287269809
129.08257 1586.9908 800 4287730360
129.92294 1586.767 798 4288518589
131.14862 1586.767 798 4290163670
132.17615 1586.655 797 4291150284
133.2 1586.5431 796 4293847796
134.01834 1586.3192 794 4294571002
135.03302 1586.2073 793 4294373879
136.24954 1586.2073 793 4294702840
137.46605 1586.2073 793 4294834682
138.47339 1586.0955 792 4294505206
139.47707 1585.9835 791 4294242291
140.68991 1585.9835 791 4294242293
141.90276 1585.9835 791 4294110451
142.68257 1585.7596 789 4294110451
143.6734 1585.6477 788 4294110451
144.88074 1585.6477 788 4293979633
146.08807 1585.6477 788 4294308597
147.07156 1585.5358 787 4294177009
147.82568 1585.3119 785 4294308595
149.02753 1585.3119 785 4293847794
150.22935 1585.3119 785 4293584879
150.96881 1585.0881 783 4293781488
151.93394 1584.9762 782 4294307832
153.13028 1584.9762 782 4294110705
153.85321 1584.7523 780 4294242291
155.04587 1584.7523 780 4294175983
156.23853 1584.7523 780 4293518052
157.4312 1584.7523 780 4293517548
-64.601837 1583.7798 782 4291742927
-63.405506 1583.7798 782 4294440184
-62.018349 1583.5596 780 4294966776
-60.825687 1583.5596 780 4294834932
-59.633026 1583.5596 780 4294769139
-58.440369 1583.5596 780 4294967295
-57.247707 1583.5596 780 4294967295
-56.227524 1583.7798 782 4294967295
-55.031193 1583.7798 782 4294967295
-53.917431 1583.8899 783 4294967295
-52.799999 1584 784 4294901502
-51.678898 1584.1101 785 4292796126
-50.631191 1584.3303 787 4291938754
-49.42569 1584.3303 787 4293057236
-48.293579 1584.4404 788 4294239709
-47.300919 1584.7706 791 4293647571
-46.088074 1584.7706 791 4292397748
-44.875229 1584.7706 791 4292594870
-43.728439 1584.8807 792 4292331702
-42.51376 1584.8807 792 4292528825
-41.299084 1584.8807 792 4292462770
-40.144955 1584.9908 793 4292528564
-38.92844 1584.9908 793 4292462518
-37.768806 1585.101 794 4292660154
-36.660549 1585.321 796 4292857274
-35.438534 1585.321 796 4292857274
-34.267891 1585.4312 797 4292857528
-33.093578 1585.5413 798 4293054908
-31.867889 1585.5413 798 4292989378
-30.733946 1585.7615 800 4293515722
-29.548624 1585.8716 801 4293252806
-28.359632 1585.9817 802 4293186757
125.09174 1586.3119 805 4287138484
125.76881 1585.9817 802 4287203764
126.81284 1585.8716 801 4287203764
127.85321 1585.7615 800 4287334067
129.08257 1585.7615 800 4288123583
129.92294 1585.5413 798 4288846525
130.9523 1585.4312 797 4290228178
131.97798 1585.321 796 4291017930
132.8 1585.101 794 4294110201
134.01834 1585.101 794 4294571002
135.23669 1585.101 794 4294636795
136.04404 1584.8807 792 4294834682
137.25871 1584.8807 792 4294966269
138.26422 1584.7706 791 4294505206
139.47707 1584.7706 791 4294242291
140.26422 1584.5504 789 4294176757
141.47339 1584.5504 789 4293979635
142.46605 1584.4404 788 4293979635
143.45505 1584.3303 787 4293979635
144.66055 1584.3303 787 4293979635
145.86606 1584.3303 787 4293979635
146.62386 1584.1101 785 4293979635
147.60001 1584 784 4293979635
148.8 1584 784 4293978866
150 1584 784 4293847281
150.73761 1583.7798 782 4293846765
151.93394 1583.7798 782 4294109938
152.66055 1583.5596 780 4293846765
153.61652 1583.4496 779 4294307316
154.80734 1583.4496 779 4294373361
155.99817 1583.4496 779 4293978603
157.189 1583.4496 779 4293386984
-63.21101 1582.3669 780 4294967295
-62.018349 1582.3669 780 4294967295
-60.732109 1582.2587 779 4294967295
-59.541283 1582.2587 779 4294967295
-58.35046 1582.2587 779 4294967295
-57.159634 1582.2587 779 4294967295
-56.055046 1582.3669 780 4294967295
-54.862385 1582.3669 780 4294967295
-53.669724 1582.3669 780 4294967295
-52.638531 1582.5835 782 4294967295
-51.442204 1582.5835 782 4293585642
-50.477066 1582.9082 785 4292270034
-49.42569 1583.1248 787 4292993501
-48.293579 1583.233 788 4293780697
-47.300919 1583.5579 791 4293254097
-46.088074 1583.5579 791 4292792515
-44.739449 1583.3413 789 4293318859
-43.662384 1583.5579 791 4293120705
-42.449543 1583.5579 791 4293120705
-41.236698 1583.5579 791 4292988867
-40.084404 1583.666 792 4293515211
-38.92844 1583.7743 793 4293252806
-37.711926 1583.7743 793 4293252806
-36.660549 1584.0991 796 4293252804
-35.438534 1584.0991 796 4293779149
-34.267891 1584.2073 797 4293712835
-33.093578 1584.3156 798 4293712835
-31.963303 1584.5321 800 4293581515
-30.779816 1584.6404 801 4293779151
-29.592661 1584.7487 802 4293449679
-28.359632 1584.7487 802 4293581265
-27.20734 1584.9651 804 4293450449
124.90643 1584.9651 804 4286810805
125.58165 1584.6404 801 4287203764
126.62386 1584.5321 800 4287137971
127.28073 1584.2073 797 4287399864
128.50459 1584.2073 797 4288452295
129.72844 1584.2073 797 4288649395
130.75597 1584.0991 796 4290031048
131.97798 1584.0991 796 4290952650
132.8 1583.8826 794 4294242300
134.01834 1583.8826 794 4294966782
135.03302 1583.7743 793 4294703353
135.83853 1583.5579 791 4294967037
137.05138 1583.5579 791 4294967294
137.84587 1583.3413 789 4294637047
139.05504 1583.3413 789 4294308338
140.05138 1583.233 788 4293979635
141.25871 1583.233 788 4293979635
142.24954 1583.1248 787 4293913842
143.45505 1583.1248 787 4293913842
144.22018 1582.9082 785 4294110451
145.42201 1582.9082 785 4294044658
146.39999 1582.8 784 4293978864
147.60001 1582.8 784 4294044658
148.57248 1582.6918 783 4294110451
149.77065 1582.6918 783 4294176244
150.27522 1582.3669 780 4293781742
151.4679 1582.3669 780 4294176244
152.42569 1582.2587 779 4294044655
153.61652 1582.2587 779 4294044655
154.80734 1582.2587 779 4294110703
155.99817 1582.2587 779 4294242289
157.189 1582.2587 779 4293386984
-64.601837 1581.3872 782 4294967295
-63.21101 1581.1743 780 4294967295
-61.922935 1581.0679 779 4294967295
-60.638531 1580.9614 778 4294967295
-59.449543 1580.9614 778 4294967295
-58.170643 1580.8551 777 4294967295
-57.07156 1580.9614 778 4294967295
-55.968807 1581.0679 779 4294967295
-54.777981 1581.0679 779 4294967295
-53.587154 1581.0679 779 4294967295
-52.477066 1581.1743 780 4294967295
-51.284405 1581.1743 780 4294967295
-50.245872 1581.3872 782 4292467427
-49.27523 1581.7064 785 4292730598
-48.220184 1581.9193 787 4293518554
-47.157799 1582.1321 789 4293189589
-45.948624 1582.1321 789 4292858049
-44.739449 1582.1321 789 4293252806
-43.530273 1582.1321 789 4293251521
-42.449543 1582.345 791 4293251521
-41.236698 1582.345 791 4292923071
-40.023853 1582.345 791 4293383622
-38.811008 1582.345 791 4292924355
-37.655045 1582.4514 792 4292924355
-36.660549 1582.8771 796 4292858047
-35.438534 1582.8771 796 4293581769
-34.267891 1582.9835 797 4293712322
-33.093578 1583.0898 798 4293778115
-31.963303 1583.3027 800 4293581515
-30.779816 1583.4092 801 4293647308
-29.592661 1583.5156 802 4293383370
124.35046 1583.4092 801 4286745012
125.39449 1583.3027 800 4287400114
126.24587 1583.0898 798 4287400114
127.28073 1582.9835 797 4287465137
128.31192 1582.8771 796 4288517825
129.53395 1582.8771 796 4288714687
130.75597 1582.8771 796 4290030546
131.58165 1582.6642 794 4290886857
132.60001 1582.5579 793 4294242300
133.81651 1582.5579 793 4294966783
134.82936 1582.4514 792 4294967295
135.83853 1582.345 791 4294967295
136.6367 1582.1321 789 4294967039
137.84587 1582.1321 789 4294506233
139.47707 1582.345 791 4294242804
140.05138 1582.0256 788 4294044658
141.04404 1581.9193 787 4293781742
142.24954 1581.9193 787 4293453293
143.01834 1581.7064 785 4293847794
144 1581.6 784 4294308086
145.2 1581.6 784 4294110451
146.39999 1581.6 784 4294109938
147.37431 1581.4935 783 4294044144
148.34496 1581.3872 782 4293847535
149.54129 1581.3872 782 4293978864
150.27522 1581.1743 780 4293386984
151.23486 1581.0679 779 4293978864
152.42569 1581.0679 779 4293913839
153.61652 1581.0679 779 4293716460
154.5688 1580.9614 778 4293519082
155.7578 1580.9614 778 4293519082
157.189 1581.0679 779 4293255142
158.62386 1581.1743 780 4293518313
-63.016514 1579.7725 778 4294967295
-61.732109 1579.6678 777 4294967295
-60.544952 1579.6678 777 4294967295
-59.3578 1579.6678 777 4294967295
-58.170643 1579.6678 777 4294967295
-56.983486 1579.6678 777 4294967295
-55.882568 1579.7725 778 4294967295
-54.693577 1579.7725 778 4294967295
-53.587154 1579.8771 779 4294967295
-52.477066 1579.9817 780 4294967295
-51.284405 1579.9817 780 4294967295
-50.245872 1580.1908 782 4294967295
-49.049541 1580.1908 782 4293585138
-48.073395 1580.5046 785 4293978588
-47.014679 1580.7137 787 4293518037
-45.878899 1580.8184 788 4293187272
-44.671558 1580.8184 788 4293318859
-43.464222 1580.8184 788 4293515207
-42.321102 1580.923 789 4293449414
-41.111927 1580.923 789 4293383620
-39.902752 1580.923 789 4293581256
-38.693577 1580.923 789 4293318600
-37.598164 1581.1321 791 4293647308
-36.550457 1581.4459 794 4293581767
-35.332111 1581.4459 794 4293779146
-34.267891 1581.7596 797 4293976777
-33.093578 1581.8643 798 4294108363
-31.963303 1582.0734 800 4293910480
-30.779816 1582.178 801 4293976273
-29.548624 1582.178 801 4293778899
-28.359632 1582.2826 802 4293976021
124.35046 1582.178 801 4287597757
125.39449 1582.0734 800 4287794870
126.24587 1581.8643 798 4288452543
127.0899 1581.655 796 4288583352
128.31192 1581.655 796 4288780732
129.14496 1581.4459 794 4288912331
130.3633 1581.4459 794 4289767640
131.58165 1581.4459 794 4290491586
132.60001 1581.3413 793 4294373629
133.61469 1581.2367 792 4294967295
134.82936 1581.2367 792 4294967295
135.83853 1581.1321 791 4294966269
136.6367 1580.923 789 4294571254
138.26422 1581.1321 791 4294440438
139.05504 1580.923 789 4294242802
139.83853 1580.7137 787 4294044658
141.04404 1580.7137 787 4293781742
141.81651 1580.5046 785 4293781490
143.01834 1580.5046 785 4294110199
144 1580.4 784 4294110453
145.2 1580.4 784 4293978866
146.17615 1580.2954 783 4293847281
147.14862 1580.1908 782 4293781488
148.34496 1580.1908 782 4293847535
149.08257 1579.9817 780 4293978864
150.04404 1579.8771 779 4293518061
151.23486 1579.8771 779 4293978612
152.19083 1579.7725 778 4293847533
153.37982 1579.7725 778 4293781740
154.5688 1579.7725 778 4293519082
155.7578 1579.7725 778 4293519082
156.94679 1579.7725 778 4293320939
158.13577 1579.7725 778 4293518061
-63.016514 1578.5835 778 4294967295
-61.732109 1578.4807 777 4294967295
-60.544952 1578.4807 777 4294967295
-59.3578 1578.4807 777 4294967295
-58.170643 1578.4807 777 4294967295
-56.983486 1578.4807 777 4294967295
-55.796329 1578.4807 777 4294967295
-54.609173 1578.4807 777 4294967295
-53.42202 1578.4807 777 4294967295
-52.396332 1578.6863 779 4294967295
-51.284405 1578.7889 780 4294967295
-50.091743 1578.7889 780 4294967295
-49.049541 1578.9945 782 4294177781
-47.926605 1579.0973 783 4294176739
-46.799999 1579.2 784 4293452759
-45.669724 1579.3027 785 4293252804
-44.603668 1579.5083 787 4293515720
-43.464222 1579.611 788 4293581256
-42.256882 1579.611 788 4293515207
-41.049541 1579.611 788 4293449154
-39.842201 1579.611 788 4293449154
-38.634861 1579.611 788 4293514175
-37.484406 1579.7137 789 4293974726
-36.385323 1579.9193 791 4293778115
-35.225689 1580.022 792 4294107080
-34.267891 1580.5358 797 4293976525
-33.093578 1580.6385 798 4294042318
-31.963303 1580.844 800 4293845207
-30.733946 1580.844 800 4293845207
-29.548624 1580.9468 801 4293909967
-28.31743 1580.9468 801 4294041553
124.35046 1580.9468 801 4287925434
125.02018 1580.6385 798 4287991479
126.05688 1580.5358 797 4288452030
127.0899 1580.433 796 4288649145
128.31192 1580.433 796 4288912574
129.14496 1580.2275 794 4288978376
130.3633 1580.2275 794 4289833685
131.38348 1580.1248 793 4290097343
132.39999 1580.022 792 4294176509
133.61469 1580.022 792 4294967295
134.82936 1580.022 792 4294967295
135.83853 1579.9193 791 4294440184
136.42935 1579.611 788 4294308597
137.6367 1579.611 788 4294506231
138.63303 1579.5083 787 4294242802
139.41284 1579.3027 785 4294110451
140.61469 1579.3027 785 4294044658
141.81651 1579.3027 785 4293978351
142.8 1579.2 784 4294109938
144 1579.2 784 4293847281
145.2 1579.2 784 4293847281
146.17615 1579.0973 783 4293847281
147.14862 1578.9945 782 4293847281
147.88991 1578.7889 780 4293782253
148.85321 1578.6863 779 4293716460
149.81285 1578.5835 778 4293188836
150.76881 1578.4807 777 4293517800
151.7211 1578.3779 776 4293452007
152.90642 1578.3779 776 4293583593
154.09174 1578.3779 776 4293650154
155.27707 1578.3779 776 4293650154
156.46239 1578.3779 776 4293320937
-63.016514 1577.3945 778 4294967295
-61.732109 1577.2936 777 4294967295
-60.451378 1577.1926 776 4294967295
-59.266056 1577.1926 776 4294967295
-58.080734 1577.1926 776 4294967295
-56.895412 1577.1926 776 4294967295
-55.796329 1577.2936 777 4294967295
-54.609173 1577.2936 777 4294967295
-53.504585 1577.3945 778 4294967295
-52.315598 1577.3945 778 4294967295
-51.205505 1577.4954 779 4294967295
-50.091743 1577.5963 780 4294967295
-48.899082 1577.5963 780 4294375158
-47.85321 1577.7982 782 4293913308
-46.799999 1578 784 4293584599
-45.669724 1578.101 785 4293912013
-44.467892 1578.101 785 4293912013
-43.398167 1578.3027 787 4293910732
-42.192661 1578.3027 787 4293976525
-40.987156 1578.3027 787 4293713355
-39.781651 1578.3027 787 4293779149
-38.576145 1578.3027 787 4294041286
-37.370644 1578.3027 787 4294172873
-36.220184 1578.4037 788 4294107078
-35.172478 1578.7064 791 4294107078
-34.216515 1579.2111 796 4293779914
-33.044037 1579.3119 797 4294964959
-31.867889 1579.4128 798 4294438373
-30.733946 1579.6146 800 4293977822
125.02018 1579.4128 798 4287925173
126.05688 1579.3119 797 4288319931
127.0899 1579.2111 796 4288649145
128.31192 1579.2111 796 4289307076
129.14496 1579.0092 794 4289504204
130.16698 1578.9082 793 4290227928
131.38348 1578.9082 793 4290162623
132.39999 1578.8074 792 4294175996
133.41284 1578.7064 791 4294967039
134.62569 1578.7064 791 4294967295
135.42752 1578.5046 789 4294637049
136.22202 1578.3027 787 4294505206
137.42752 1578.3027 787 4294571254
138.21101 1578.101 785 4294308338
139.41284 1578.101 785 4294242291
140.39999 1578 784 4294505206
141.60001 1578 784 4293978862
142.58165 1577.899 783 4294044655
143.55963 1577.7982 782 4293847281
144.97798 1577.899 783 4293715695
145.50459 1577.5963 780 4293716206
146.69725 1577.5963 780 4293782255
147.66238 1577.4954 779 4293585131
148.62386 1577.3945 778 4293585131
149.58165 1577.2936 777 4293320939
150.53578 1577.1926 776 4293583855
151.7211 1577.1926 776 4293320937
152.90642 1577.1926 776 4293386730
153.61469 1576.9908 774 4293386982
154.79633 1576.9908 774 4293386982
155.97798 1576.9908 774 4293321191
-62.919266 1576.1064 777 4294967295
-61.732109 1576.1064 777 4294967295
-60.451378 1576.0073 776 4294967295
-59.266056 1576.0073 776 4294967295
-58.080734 1576.0073 776 4294967295
-56.895412 1576.0073 776 4294967295
-55.710091 1576.0073 776 4294967295
-54.609173 1576.1064 777 4294967295
-53.42202 1576.1064 777 4294967295
-52.315598 1576.2056 778 4294967295
-51.205505 1576.3046 779 4294967295
-50.014679 1576.3046 779 4294967295
-48.823853 1576.3046 779 4294967295
-47.706421 1576.4037 780 4294045157
-46.728439 1576.7009 783 4293387484
-45.599998 1576.8 784 4293977808
-44.400002 1576.8 784 4294043601
-43.266056 1576.899 785 4293648592
-42.192661 1577.0973 787 4293648592
-40.862385 1576.899 785 4293647308
-39.660549 1576.899 785 4293910480
-38.576145 1577.0973 787 4293976273
-37.370644 1577.0973 787 4293976273
-36.165138 1577.0973 787 4294172875
-35.172478 1577.4935 791 4294172875
-34.062386 1577.6918 793 4293713615
-32.895412 1577.7908 794 4294371801
-31.820183 1578.0881 797 4294307301
124.83303 1578.0881 797 4288450486
125.86789 1577.989 796 4288713657
127.0899 1577.989 796 4288911548
127.92661 1577.7908 794 4289569734
128.95045 1577.6918 793 4289569995
130.16698 1577.6918 793 4289701582
131.18532 1577.5927 792 4290424511
132.2 1577.4935 791 4294437885
133.41284 1577.4935 791 4294967295
134.21835 1577.2954 789 4294966527
135.42752 1577.2954 789 4294636536
136.22202 1577.0973 787 4294307314
137.00917 1576.899 785 4294109938
138.21101 1576.899 785 4294175731
139.2 1576.8 784 4294044658
140.39999 1576.8 784 4294176244
141.38348 1576.7009 783 4293782255
142.8 1576.8 784 4293848048
143.55963 1576.6018 782 4293716208
144.75597 1576.6018 782 4293519086
145.50459 1576.4037 780 4293321450
146.47156 1576.3046 779 4293584879
147.66238 1576.3046 779 4293387749
148.3945 1576.1064 777 4293387749
149.35046 1576.0073 776 4293255657
150.53578 1576.0073 776 4293387243
151.25137 1575.8092 774 4293255142
152.43303 1575.8092 774 4293321191
153.37614 1575.7101 773 4293188836
154.55597 1575.7101 773 4293123042
155.73578 1575.7101 773 4293057512
-62.919266 1574.9193 777 4294967295
-61.636696 1574.822 776 4294967295
-60.451378 1574.822 776 4294967295
-59.266056 1574.822 776 4294967295
-57.900917 1574.6276 774 4294967295
-56.719265 1574.6276 774 4294967295
-55.537613 1574.6276 774 4294967295
-54.524769 1574.822 776 4294967295
-53.42202 1574.9193 777 4294967295
-52.234863 1574.9193 777 4294967295
-51.205505 1575.1138 779 4294967295
-50.014679 1575.1138 779 4294967295
-48.823853 1575.1138 779 4294967295
-47.85321 1575.4055 782 4294768887
-46.656879 1575.4055 782 4293716199
-45.530273 1575.5028 783 4293978319
-44.332111 1575.5028 783 4294044113
-43.133945 1575.5028 783 4293779923
-42.06422 1575.6973 785 4293779923
-40.862385 1575.6973 785 4293845203
-39.660549 1575.6973 785 4293911252
-38.458717 1575.6973 785 4293911000
-37.256882 1575.6973 785 4294173916
-36.165138 1575.8917 787 4294240213
-35.012844 1575.989 788 4294634970
-33.805504 1575.989 788 4294503651
-32.746788 1576.2808 791 4294372064
-31.772476 1576.767 796 4294437344
-30.596331 1576.8643 797 4294897895
123.79449 1576.9614 798 4288713151
124.64587 1576.767 796 4288843960
125.48991 1576.5725 794 4289041339
126.70826 1576.5725 794 4288911037
127.73395 1576.4752 793 4290161103
128.95045 1576.4752 793 4289701069
129.97064 1576.3779 792 4289503689
130.98715 1576.2808 791 4290227648
131.8 1576.0862 789 4294372607
133.00917 1576.0862 789 4294966527
133.811 1575.8917 787 4294965244
135.01651 1575.8917 787 4294636536
135.80734 1575.6973 785 4294373107
137.00917 1575.6973 785 4294109940
138 1575.6 784 4294307062
138.98715 1575.5028 783 4294176244
140.18532 1575.5028 783 4294505208
141.16698 1575.4055 782 4294374392
142.3633 1575.4055 782 4294374392
143.11926 1575.2111 780 4294308595
144.31192 1575.2111 780 4293585129
145.28073 1575.1138 779 4293453041
146.47156 1575.1138 779 4293781749
147.43486 1575.0165 778 4293255394
148.16513 1574.822 776 4293255394
149.35046 1574.822 776 4293321191
150.06972 1574.6276 774 4293584107
151.25137 1574.6276 774 4293321191
152.19633 1574.5303 773 4293321191
152.89908 1574.3358 771 4293056999
153.83487 1574.2385 770 4293056999
-62.919266 1573.7321 777 4294967292
-61.636696 1573.6367 776 4294967295
-60.264221 1573.4459 774 4294967295
-59.082569 1573.4459 774 4294967295
-57.900917 1573.4459 774 4294967295
-56.719265 1573.4459 774 4294967295
-55.537613 1573.4459 774 4294967295
-54.355965 1573.4459 774 4294967295
-53.174313 1573.4459 774 4294967295
-52.154129 1573.6367 776 4294967295
-51.047707 1573.7321 777 4294967295
-49.937614 1573.8275 778 4294967295
-48.748623 1573.8275 778 4294967295
-47.633026 1573.923 779 4294967290
-46.656879 1574.2092 782 4293585379
-45.460552 1574.2092 782 4294043865
-44.332111 1574.3046 783 4294043865
-43.133945 1574.3046 783 4293976273
-42 1574.4 784 4294042066
-40.799999 1574.4 784 4293976273
-39.599998 1574.4 784 4294042066
-38.458717 1574.4954 785 4293911252
-37.256882 1574.4954 785 4294174168
-36.055046 1574.4954 785 4294043865
-34.959633 1574.6863 787 4294175451
-33.754128 1574.6863 787 4294503903
-32.647705 1574.8771 789 4294766818
-31.581652 1575.1633 792 4294700264
-30.366972 1575.1633 792 4294766057
-29.372477 1575.6404 797 4294305754
123.60918 1575.6404 797 4289238205
124.64587 1575.5449 796 4289303485
125.48991 1575.3541 794 4289237691
126.70826 1575.3541 794 4289041591
127.73395 1575.2587 793 4290225609
128.75597 1575.1633 792 4289701574
129.77431 1575.0679 791 4289569732
130.59082 1574.8771 789 4290227896
131.60001 1574.7816 788 4294504697
132.6055 1574.6863 787 4294967039
133.40367 1574.4954 785 4294834430
134.6055 1574.4954 785 4294636795
135.80734 1574.4954 785 4294308086
136.8 1574.4 784 4293912304
138 1574.4 784 4294372855
138.98715 1574.3046 783 4294373109
139.97064 1574.2092 782 4294438902
141.16698 1574.2092 782 4294308599
141.92661 1574.0183 780 4294440186
143.11926 1574.0183 780 4294440186
144.31192 1574.0183 780 4293519084
145.28073 1573.923 779 4293518061
146.24586 1573.8275 778 4293583855
147.20734 1573.7321 777 4293123042
148.16513 1573.6367 776 4293254629
149.35046 1573.6367 776 4293188838
150.06972 1573.4459 774 4293254631
151.01651 1573.3505 773 4293189349
151.95964 1573.255 772 4293189349
152.89908 1573.1597 771 4293056997
153.83487 1573.0642 770 4293056997
-61.636696 1572.4514 776 4294177261
-60.264221 1572.2642 774 4294967295
-59.082569 1572.2642 774 4294967295
-57.811008 1572.1707 773 4294967295
-56.631191 1572.1707 773 4294967295
-55.451378 1572.1707 773 4294967295
-54.271561 1572.1707 773 4294967295
-53.174313 1572.2642 774 4294967295
-51.992661 1572.2642 774 4294967295
-50.968807 1572.4514 776 4294967295
-49.86055 1572.5449 777 4294967295
-48.673393 1572.5449 777 4294967295
-47.559631 1572.6385 778 4294966515
-46.442204 1572.7321 779 4294110691
-45.321102 1572.8257 780 4294306271
-44.264221 1573.0128 782 4294372064
-43.06789 1573.0128 782 4294371801
-41.871559 1573.0128 782 4294371801
-40.737614 1573.1064 783 4294437848
-39.539448 1573.1064 783 4294700764
-38.400002 1573.2 784 4294109147
-37.200001 1573.2 784 4294503649
-36 1573.2 784 4294503900
-34.959633 1573.4807 787 4294701279
-33.754128 1573.4807 787 4294634719
-32.598164 1573.5743 788 4294965225
-31.533945 1573.8551 791 4294964975
-30.366972 1573.9486 792 4294766568
-29.196331 1574.0422 793 4294043615
123.42385 1574.323 796 4289831107
124.27156 1574.1357 794 4290092998
125.30092 1574.0422 793 4290158791
126.51743 1574.0422 793 4290027716
127.54128 1573.9486 792 4290291145
128.56146 1573.8551 791 4290030537
129.77431 1573.8551 791 4290359246
130.59082 1573.6678 789 4290163377
131.39999 1573.4807 787 4294571252
132.20183 1573.2936 785 4294967295
133.40367 1573.2936 785 4294900735
134.39999 1573.2 784 4294636795
135.60001 1573.2 784 4294308086
136.8 1573.2 784 4294044406
137.78899 1573.1064 783 4294176248
138.77431 1573.0128 782 4294176244
139.54129 1572.8257 780 4294176244
140.73395 1572.8257 780 4294177011
141.70825 1572.7321 779 4294308597
142.89908 1572.7321 779 4294373877
143.86789 1572.6385 778 4293584105
144.83302 1572.5449 777 4293584109
145.79449 1572.4514 776 4293649902
146.97981 1572.4514 776 4293254892
148.16513 1572.4514 776 4293649650
148.88808 1572.2642 774 4293254633
149.8367 1572.1707 773 4293188840
150.78165 1572.077 772 4293189351
151.72293 1571.9835 771 4293189351
152.66055 1571.8899 770 4293056997
153.83487 1571.8899 770 4293056997
-60.170643 1570.9908 773 4294967295
-58.990826 1570.9908 773 4294967295
-57.811008 1570.9908 773 4294967295
-56.543118 1570.899 772 4294967295
-55.365139 1570.899 772 4294967295
-54.271561 1570.9908 773 4294967295
-53.091743 1570.9908 773 4294967295
-51.911926 1570.9908 773 4294967295
-50.811008 1571.0825 774 4294967295
-49.783485 1571.2661 776 4294967295
-48.673393 1571.3578 777 4294901500
-47.48624 1571.3578 777 4294966774
-46.299084 1571.3578 777 4294439402
-45.251377 1571.5413 779 4294568412
-44.128441 1571.6331 780 4294634205
-42.869724 1571.5413 779 4294633685
-41.743118 1571.6331 780 4294699478
-40.675228 1571.8165 782 4294503900
-39.478901 1571.8165 782 4294503900
-38.400002 1572 784 4293648592
-37.14312 1571.9082 783 4294109143
-35.944954 1571.9082 783 4294239961
-34.85321 1572.0918 785 4294239961
-33.754128 1572.2753 787 4294501331
-32.548622 1572.2753 787 4294965223
-31.438532 1572.4587 789 4294966777
-30.3211 1572.6422 791 4294833649
-29.196331 1572.8257 793 4293977820
-28.022018 1572.9175 794 4294241248
124.27156 1572.9175 794 4290092996
125.30092 1572.8257 793 4290487754
126.51743 1572.8257 793 4290684617
127.54128 1572.7339 792 4290684617
128.56146 1572.6422 791 4290030535
129.38165 1572.4587 789 4290162121
130.19449 1572.2753 787 4290163638
131 1572.0918 785 4294374390
132 1572 784 4294704127
133.2 1572 784 4294243576
134.39999 1572 784 4294177783
135.60001 1572 784 4294045941
136.59082 1571.9082 783 4293913842
137.57799 1571.8165 782 4293979635
138.34862 1571.6331 780 4294045428
139.54129 1571.6331 780 4294045428
140.51743 1571.5413 779 4294044655
141.70825 1571.5413 779 4294176498
142.67889 1571.4496 778 4293847535
143.64587 1571.3578 777 4293715693
144.60918 1571.2661 776 4293978866
145.34312 1571.0825 774 4293715695
146.52477 1571.0825 774 4293189097
147.47707 1570.9908 773 4293255146
148.65688 1570.9908 773 4293385960
149.60367 1570.899 772 4293254631
150.54678 1570.8074 771 4293189351
151.72293 1570.8074 771 4293123558
152.66055 1570.7156 770 4292860388
153.35413 1570.5321 768 4293057510
-60.077065 1569.7211 772 4294967295
-58.899082 1569.7211 772 4294967295
-57.7211 1569.7211 772 4294967295
-56.543118 1569.7211 772 4294967295
-55.365139 1569.7211 772 4294967295
-54.187157 1569.7211 772 4294967295
-53.009174 1569.7211 772 4294967295
-51.831192 1569.7211 772 4294967295
-50.732109 1569.811 773 4294967295
-49.629356 1569.9009 774 4294967295
-48.447708 1569.9009 774 4293914089
-47.412846 1570.0807 776 4294570990
-46.227524 1570.0807 776 4294768369
-45.111927 1570.1707 777 4294898406
-44.060551 1570.3505 779 4294766820
-42.803669 1570.2605 778 4294305754
-41.678898 1570.3505 779 4294832354
-40.550457 1570.4404 780 4294569694
-39.478901 1570.6202 782 4294503900
-38.28257 1570.6202 782 4294503903
-37.14312 1570.7101 783 4294438109
-35.889908 1570.6202 782 4294437596
-34.85321 1570.8899 785 4294964455
-33.651375 1570.8899 785 4294967288
-32.449543 1570.8899 785 4294967295
-31.438532 1571.2495 789 4294967295
-30.3211 1571.4293 791 4294967287
-29.152294 1571.5193 792 4294570472
-27.979816 1571.6091 793 4294767852
-26.722937 1571.5193 792 4294438373
124.0844 1571.6091 793 4290553799
125.11192 1571.5193 792 4291080143
126.32661 1571.5193 792 4291145936
127.34863 1571.4293 791 4291145936
128.17247 1571.2495 789 4290292939
128.59633 1570.8899 785 4290161353
129.79817 1570.8899 785 4290492092
130.8 1570.8 784 4294308086
132 1570.8 784 4294242806
132.99634 1570.7101 783 4293913842
133.989 1570.6202 782 4294110453
135.39265 1570.7101 783 4294044660
136.38165 1570.6202 782 4294109938
137.15596 1570.4404 780 4294307316
138.13577 1570.3505 779 4293978862
139.3266 1570.3505 779 4293781740
140.30092 1570.2605 778 4294044909
141.48991 1570.2605 778 4294176496
142.45871 1570.1707 777 4293978603
143.42386 1570.0807 776 4293846761
144.60918 1570.0807 776 4293978351
145.34312 1569.9009 774 4293912558
146.29724 1569.811 773 4293254379
147.24771 1569.7211 772 4293254379
148.42569 1569.7211 772 4293451240
149.37064 1569.6312 771 4293385447
150.54678 1569.6312 771 4293188838
151.48624 1569.5413 770 4293123044
152.18349 1569.3615 768 4292860388
153.11375 1569.2716 767 4293057510
-59.702751 1568.1908 768 4294967295
-58.807339 1568.4551 771 4294967295
-57.631191 1568.4551 771 4294967295
-56.455048 1568.4551 771 4294967295
-55.2789 1568.4551 771 4294967295
-54.102753 1568.4551 771 4294967295
-53.009174 1568.5431 772 4294967295
-51.831192 1568.5431 772 4294967295
-50.65321 1568.5431 772 4294967295
-49.552292 1568.6312 773 4294967295
-48.447708 1568.7192 774 4293848296
-47.412846 1568.8954 776 4294570218
-46.227524 1568.8954 776 4294899440
-45.042202 1568.8954 776 4294898920
-43.992661 1569.0715 778 4294636004
-42.803669 1569.0715 778 4294240213
-41.614677 1569.0715 778 4294766557
-40.488075 1569.1597 779 4294569696
-39.3578 1569.2477 780 4294503903
-38.165138 1569.2477 780 4294831328
-36.972477 1569.2477 780 4294831328
-35.779816 1569.2477 780 4294634205
-34.746788 1569.512 783 4294967295
-33.599998 1569.6 784 4294967295
-32.400002 1569.6 784 4294967295
-31.343119 1569.8643 787 4294967295
-30.229359 1570.0404 789 4294967295
-29.108257 1570.2166 791 4294505199
-27.979816 1570.3927 793 4294307564
-26.763302 1570.3927 793 4294503649
123.89725 1570.3046 792 4290554564
125.11192 1570.3046 792 4290949322
125.75413 1570.0404 789 4290949840
126.9633 1570.0404 789 4290949840
127.39449 1569.6881 785 4290424261
128.39999 1569.6 784 4290424261
129.60001 1569.6 784 4290886081
130.60001 1569.512 783 4294373109
131.79817 1569.512 783 4294308086
132.79266 1569.4238 782 4293978864
133.57799 1569.2477 780 4294109938
134.77065 1569.2477 780 4294175731
135.9633 1569.2477 780 4294110191
136.94496 1569.1597 779 4294044142
137.92294 1569.0715 778 4293715434
139.11192 1569.0715 778 4293517798
140.0844 1568.9835 777 4293386982
141.27156 1568.9835 777 4293650154
142.23853 1568.8954 776 4293254629
142.97981 1568.7192 774 4293517800
144.16147 1568.7192 774 4293583593
145.11743 1568.6312 773 4293583593
146.06972 1568.5431 772 4293319656
147.01834 1568.4551 771 4293517035
148.19449 1568.4551 771 4293648105
149.13762 1568.3669 770 4293582312
150.31192 1568.3669 770 4293254631
151.48624 1568.3669 770 4293123044
151.94496 1568.1028 767 4292794593
153.11375 1568.1028 767 4292794593
-59.702751 1567.0201 768 4294967295
-58.532108 1567.0201 768 4294967295
-57.361469 1567.0201 768 4294967295
-56.102753 1566.934 767 4294967295
-55.020184 1567.0201 768 4294967295
-53.849541 1567.0201 768 4294967295
-52.926605 1567.2789 771 4294967295
-51.750458 1567.2789 771 4294967295
-50.57431 1567.2789 771 4294967295
-49.475231 1567.3651 772 4294967295
-48.372478 1567.4514 773 4293782503
-47.266056 1567.5376 774 4294176233
-46.084404 1567.5376 774 4294966005
-44.902752 1567.5376 774 4294967278
-43.92477 1567.7964 777 4294967278
-42.737614 1567.7964 777 4294964972
-41.550457 1567.7964 777 4294966771
-40.363304 1567.7964 777 4294701545
-39.297249 1567.9688 779 4294569959
-38.047707 1567.8826 778 4294898406
-36.915596 1567.9688 779 4294965484
-35.72477 1567.9688 779 4294899173
-34.533943 1567.9688 779 4294967295
-33.548622 1568.3137 783 4294967295
-32.35046 1568.3137 783 4294967295
-31.247707 1568.4862 785 4294967295
-30.183487 1568.745 788 4294967295
-29.020184 1568.8312 789 4294767867
-27.937614 1569.09 792 4294109938
-26.722937 1569.09 792 4294438109
122.68257 1569.09 792 4290817989
123.71009 1569.0037 791 4290752711
124.54495 1568.8312 789 4291673813
125.37247 1568.6587 787 4291543508
126.19266 1568.4862 785 4291938266
127.2 1568.4 784 4290622924
128.20367 1568.3137 783 4290096580
129.40184 1568.3137 783 4291345861
130.39999 1568.2275 782 4294372596
131.59633 1568.2275 782 4294110451
132.38531 1568.0551 780 4293649900
133.37248 1567.9688 779 4293846765
134.56331 1567.9688 779 4294044144
135.75414 1567.9688 779 4293978349
136.73395 1567.8826 778 4293978349
137.7101 1567.7964 777 4293517800
138.89725 1567.7964 777 4293452007
139.86789 1567.7101 776 4293386984
141.27156 1567.7964 777 4293715693
142.23853 1567.7101 776 4293517800
142.97981 1567.5376 774 4293452007
143.93762 1567.4514 773 4293452007
145.11743 1567.4514 773 4293386214
145.84221 1567.2789 771 4293385449
147.01834 1567.2789 771 4293780207
147.9633 1567.1926 770 4293452007
149.13762 1567.1926 770 4293188836
150.31192 1567.1926 770 4293188838
151.48624 1567.1926 770 4293123044
151.94496 1566.934 767 4292860388
153.11375 1566.934 767 4293057510
-59.515594 1565.6808 766 4294967295
-58.348625 1565.6808 766 4294967294
-57.271561 1565.7651 767 4294967295
-56.102753 1565.7651 767 4294967295
-54.933945 1565.7651 767 4294967295
-53.849541 1565.8495 768 4294967295
-52.844036 1566.0183 770 4294967295
-51.669724 1566.0183 770 4294967295
-50.495415 1566.0183 770 4294967295
-49.398167 1566.1028 771 4294967295
-48.297249 1566.1871 772 4293651687
-47.192661 1566.2716 773 4293517269
-46.012844 1566.2716 773 4294966257
-44.833027 1566.2716 773 4294967290
-43.65321 1566.2716 773 4294967285
-42.539448 1566.356 774 4294767590
-41.48624 1566.5248 776 4294965483
-40.300919 1566.5248 776 4294570470
-39.176147 1566.6091 777 4294439141
-37.988991 1566.6091 777 4294636002
-36.915596 1566.778 779 4294899173
-35.72477 1566.778 779 4294505449
-34.480736 1566.6936 778 4294967295
-33.394497 1566.8624 780 4294967295
-32.201836 1566.8624 780 4294967295
-31.104588 1567.0312 782 4294967295
-29.954128 1567.1156 783 4294967295
-28.976147 1567.5376 788 4294967037
122.49725 1567.7908 791 4290816969
123.33578 1567.6221 789 4290555594
124.54495 1567.6221 789 4291542745
124.99083 1567.2844 785 4291478244
126 1567.2 784 4291083487
127.0055 1567.1156 783 4290360504
128.00734 1567.0312 782 4290360504
128.80734 1566.8624 780 4291872207
130 1566.8624 780 4294240756
131.19266 1566.8624 780 4293846765
132.18166 1566.778 779 4293715180
133.16698 1566.6936 778 4293715180
134.35596 1566.6936 778 4293715180
135.54495 1566.6936 778 4293847535
136.52293 1566.6091 777 4293847535
137.7101 1566.6091 777 4293254881
138.68257 1566.5248 776 4293452259
139.43486 1566.356 774 4293386984
140.61652 1566.356 774 4293649900
141.79817 1566.356 774 4293583593
142.7578 1566.2716 773 4293583593
143.93762 1566.2716 773 4293517287
144.89174 1566.1871 772 4293517287
145.84221 1566.1028 771 4293254633
146.78899 1566.0183 770 4293385962
147.9633 1566.0183 770 4293385960
148.67155 1565.8495 768 4293188838
149.84221 1565.8495 768 4293057764
150.77615 1565.7651 767 4293057764
151.94496 1565.7651 767 4292596959
152.8734 1565.6808 766 4292728546
-59.515594 1564.5138 766 4293979644
-58.348625 1564.5138 766 4294966261
-57.181652 1564.5138 766 4294967295
-56.014679 1564.5138 766 4294967295
-54.933945 1564.5963 767 4294967295
-53.765137 1564.5963 767 4294967295
-52.596329 1564.5963 767 4294967293
-51.427525 1564.5963 767 4294967295
-50.258717 1564.5963 767 4294967295
-49.398167 1564.9266 771 4294967295
-48.222019 1564.9266 771 4293782503
-47.119267 1565.0092 772 4293255394
-45.941284 1565.0092 772 4294966269
-44.763302 1565.0092 772 4294967281
-43.58532 1565.0092 772 4294967278
-42.473396 1565.0918 773 4294965999
-41.3578 1565.1743 774 4294965999
-40.176147 1565.1743 774 4294966255
-39.115597 1565.3395 776 4294966255
-37.988991 1565.422 777 4294701795
-36.858715 1565.5046 778 4294967023
-35.669724 1565.5046 778 4294967295
-34.480736 1565.5046 778 4294967295
-33.343121 1565.5872 779 4294967295
