# .PCD v0.7 - Point Cloud Data file format
VERSION 0.7
FIELDS x y z rgb
SIZE 4 4 4 4
TYPE F F F U
COUNT 1 1 1 1
WIDTH 1360
HEIGHT 1
VIEWPOINT 0 0 0 1 0 0 0
POINTS 1360
DATA ascii
144.49541 1554.7706 760 4293254629
145.65138 1554.7706 760 4293385960
146.80734 1554.7706 760 4293254631
-48.550457 1553.6146 760 4294966516
-47.394497 1553.6146 760 4294967287
-46.238533 1553.6146 760 4294967295
-45.082569 1553.6146 760 4294967295
-43.99633 1553.6808 761 4294967295
-42.838531 1553.6808 761 4294967295
-41.680733 1553.6808 761 4294967295
-40.522934 1553.6808 761 4294967293
-39.427525 1553.7468 762 4294175462
-38.388992 1553.8789 764 4294966263
-37.225689 1553.8789 764 4294967293
-36.062386 1553.8789 764 4294967295
-34.954128 1553.9449 765 4294967295
-33.78899 1553.9449 765 4294967295
-32.675228 1554.011 766 4294967295
-31.508257 1554.011 766 4294967295
-30.38899 1554.077 767 4294967295
-29.266054 1554.1431 768 4294967295
-28.183487 1554.2753 770 4294967295
-27.051376 1554.3413 771 4294967295
-25.875229 1554.3413 771 4294967295
-24.737616 1554.4073 772 4294967295
-23.596331 1554.4734 773 4294967295
-22.416513 1554.4734 773 4294967295
-21.269724 1554.5394 774 4294967295
-20.088074 1554.5394 774 4294967295
-18.965137 1554.6715 776 4294506229
-17.779816 1554.6715 776 4294177263
-16.594496 1554.6715 776 4293518304
113.43853 1554.5394 774 4287469755
114.62019 1554.5394 774 4288785359
116.16147 1554.6715 776 4290690289
116.80183 1554.4734 773 4292137727
117.79816 1554.4073 772 4292267736
118.79082 1554.3413 771 4288583328
119.96697 1554.3413 771 4287398258
121.14312 1554.3413 771 4292530112
122.31927 1554.3413 771 4292860640
123.49541 1554.3413 771 4293255142
124.47707 1554.2753 770 4293386210
125.65137 1554.2753 770 4293254881
126.42936 1554.1431 768 4293254881
127.6 1554.1431 768 4293386210
128.36697 1554.011 766 4293386214
129.53395 1554.011 766 4293649387
130.70091 1554.011 766 4293583593
131.66055 1553.9449 765 4293452007
132.82568 1553.9449 765 4293385960
133.77982 1553.8789 764 4293254631
134.94312 1553.8789 764 4293057501
136.10641 1553.8789 764 4293583845
136.8367 1553.7468 762 4293649387
137.77798 1553.6808 761 4293583593
138.71559 1553.6146 760 4293253858
139.87157 1553.6146 760 4293319652
141.02753 1553.6146 760 4293451492
141.95779 1553.5486 759 4293517285
142.65688 1553.4165 757 4293187552
144.0367 1553.4825 758 4293385188
145.42018 1553.5486 759 4293385701
-49.706421 1552.4587 760 4294967039
-47.394497 1552.4587 760 4294967288
-46.238533 1552.4587 760 4294967287
-45.082569 1552.4587 760 4294967295
-43.926605 1552.4587 760 4294967295
-42.770641 1552.4587 760 4294967295
-41.614677 1552.4587 760 4294967295
-40.522934 1552.5229 761 4294967295
-39.427525 1552.5872 762 4294966783
-38.388992 1552.7156 764 4294308338
-37.225689 1552.7156 764 4294899694
-36.062386 1552.7156 764 4294967295
-34.954128 1552.7798 765 4294967295
-33.78899 1552.7798 765 4294967295
-32.623852 1552.7798 765 4294967295
-31.508257 1552.844 766 4294967295
-30.341284 1552.844 766 4294967295
-29.220184 1552.9082 767 4294967295
-28.095413 1552.9725 768 4294967295
-27.009174 1553.101 770 4294967295
-25.875229 1553.1652 771 4294967295
-24.699083 1553.1652 771 4294967295
-23.559633 1553.2294 772 4294967295
-22.416513 1553.2936 773 4294967295
-21.236698 1553.2936 773 4294967295
-20.088074 1553.3578 774 4294967295
-18.906422 1553.3578 774 4294967295
-17.724771 1553.3578 774 4294375158
-16.543119 1553.3578 774 4293386464
-15.409174 1553.4862 776 4293452257
-14.223853 1553.4862 776 4293846240
114.62019 1553.3578 774 4291677423
115.80183 1553.3578 774 4292465663
116.80183 1553.2936 773 4291281141
117.79816 1553.2294 772 4289635498
118.79082 1553.1652 771 4288385431
119.96697 1553.1652 771 4288976552
120.95413 1553.101 770 4293516013
122.12844 1553.101 770 4293386210
123.30275 1553.101 770 4293189088
124.08807 1552.9725 768 4293254110
125.25871 1552.9725 768 4293319904
126.03303 1552.844 766 4293188836
127.2 1552.844 766 4293254629
128.16513 1552.7798 765 4293386214
129.33028 1552.7798 765 4293912558
130.2899 1552.7156 764 4293715432
131.45322 1552.7156 764 4293846761
132.19817 1552.5872 762 4293649641
133.3578 1552.5872 762 4293517798
134.51743 1552.5872 762 4293451753
135.46239 1552.5229 761 4293649389
136.62018 1552.5229 761 4293649387
137.55963 1552.4587 760 4293715180
138.49541 1552.3945 759 4293254631
139.64954 1552.3945 759 4293123044
140.35596 1552.2661 757 4293188838
141.50642 1552.2661 757 4293451753
142.20183 1552.1376 755 4293188836
143.34862 1552.1376 755 4293123042
144.95779 1552.2661 757 4293057249
-46.165138 1551.2404 759 4294966514
-45.011009 1551.2404 759 4294967287
-43.85688 1551.2404 759 4294967295
-42.634861 1551.178 758 4294967295
-41.548622 1551.2404 759 4294967295
-40.394497 1551.2404 759 4294967295
-39.365139 1551.3651 761 4294967294
-38.267891 1551.4275 762 4293980139
-37.108257 1551.4275 762 4294504164
-35.948624 1551.4275 762 4294967293
-34.78899 1551.4275 762 4294967295
-33.735779 1551.5522 764 4294967295
-32.623852 1551.6146 765 4294967295
-31.458715 1551.6146 765 4294967295
-30.341284 1551.677 766 4294967295
-29.220184 1551.7395 767 4294967295
-28.051376 1551.7395 767 4294967295
-26.92477 1551.8019 768 4294967295
-25.834862 1551.9266 770 4294967295
-24.699083 1551.989 771 4294967295
-23.559633 1552.0514 772 4294967295
-22.381651 1552.0514 772 4294967295
-21.203671 1552.0514 772 4294967295
-20.025688 1552.0514 772 4294967295
-18.877064 1552.1138 773 4294967295
-17.697248 1552.1138 773 4294967295
-16.517431 1552.1138 773 4293847267
-15.361468 1552.1761 774 4293649888
-14.179816 1552.1761 774 4294108893
113.43853 1552.1761 774 4288455646
114.62019 1552.1761 774 4292337151
115.62202 1552.1138 773 4293321727
116.62019 1552.0514 772 4288782269
117.61468 1551.989 771 4289103732
118.60551 1551.9266 770 4290090627
119.77982 1551.9266 770 4290752950
120.57615 1551.8019 768 4293121498
121.74679 1551.8019 768 4292990941
122.91743 1551.8019 768 4292859355
123.89358 1551.7395 767 4292728539
125.06239 1551.7395 767 4293057247
126.03303 1551.677 766 4293123296
127 1551.6146 765 4293254883
127.9633 1551.5522 764 4293254629
128.71927 1551.4275 762 4293386214
129.87891 1551.4275 762 4293254883
131.03853 1551.4275 762 4293517798
131.989 1551.3651 761 4293649387
133.14679 1551.3651 761 4293649387
134.30458 1551.3651 761 4293583593
135.24771 1551.3027 760 4293583593
136.18715 1551.2404 759 4293254629
137.34128 1551.2404 759 4293517800
138.05504 1551.1156 757 4293058535
139.42752 1551.178 758 4292992742
140.35596 1551.1156 757 4292926181
141.50642 1551.1156 757 4293123304
142.20183 1550.9908 755 4293451753
143.34862 1550.9908 755 4293254631
-45.011009 1550.0862 759 4294966517
-43.787155 1550.0256 758 4294966512
-42.634861 1550.0256 758 4294967287
-41.416515 1549.9651 757 4294967287
-40.330276 1550.0256 758 4294967287
-39.302753 1550.1467 760 4294967287
-38.20734 1550.2074 761 4294965487
-36.990826 1550.1467 760 4294505199
-35.891743 1550.2074 761 4294768115
-34.78899 1550.2679 762 4294967287
-33.629356 1550.2679 762 4294967295
-32.469727 1550.2679 762 4294967295
-31.458715 1550.4496 765 4294967295
-30.293577 1550.4496 765 4294967295
-29.174313 1550.5101 766 4294967295
-28.007339 1550.5101 766 4294967295
-26.882568 1550.5707 767 4294967295
-25.754128 1550.6312 768 4294967295
-24.660551 1550.7523 770 4294967295
-23.486238 1550.7523 770 4294967295
-22.346788 1550.8129 771 4294967295
-21.170643 1550.8129 771 4294967295
-19.994495 1550.8129 771 4294967295
-18.847706 1550.8734 772 4294967295
-17.669725 1550.8734 772 4294967295
-16.491743 1550.8734 772 4294966521
-15.337615 1550.934 773 4293847783
-14.135779 1550.8734 772 4293912795
-12.957798 1550.8734 772 4293978588
111.73395 1550.8129 771 4290821096
112.9101 1550.8129 771 4292992249
114.08624 1550.8129 771 4293782015
115.26238 1550.8129 771 4293123808
116.43853 1550.8129 771 4287531403
117.43119 1550.7523 770 4287793014
118.23486 1550.6312 768 4291674801
119.4055 1550.6312 768 4292135632
120.57615 1550.6312 768 4292596183
121.55596 1550.5707 767 4292793559
122.91743 1550.6312 768 4292793559
123.89358 1550.5707 767 4292728539
124.86606 1550.5101 766 4293057247
125.83486 1550.4496 765 4293319904
127 1550.4496 765 4293319904
127.9633 1550.389 764 4293385699
128.71927 1550.2679 762 4293451492
129.6734 1550.2074 761 4293386214
130.83119 1550.2074 761 4293517800
131.77982 1550.1467 760 4293649641
132.93578 1550.1467 760 4293649641
134.09174 1550.1467 760 4293649387
135.03302 1550.0862 759 4293583593
135.97064 1550.0256 758 4293452007
137.12294 1550.0256 758 4293583593
138.27522 1550.0256 758 4293386214
139.20551 1549.9651 757 4293254629
140.35596 1549.9651 757 4293122790
141.05504 1549.844 755 4292991204
142.20183 1549.844 755 4293320939
143.34862 1549.844 755 4293320939
-43.787155 1548.8734 758 4294965996
-42.566971 1548.8147 757 4294967282
-41.416515 1548.8147 757 4294967285
-40.266056 1548.8147 757 4294967284
-39.177982 1548.8734 758 4294967288
-38.025688 1548.8734 758 4294967286
-36.93211 1548.9321 759 4294373611
-35.834862 1548.9908 760 4294110439
-34.678898 1548.9908 760 4294439656
-33.576145 1549.0496 761 4294967295
-32.41835 1549.0496 761 4294967295
-31.310091 1549.1083 762 4294967295
-30.245872 1549.2257 764 4294967295
-29.082569 1549.2257 764 4294967295
-27.963303 1549.2844 765 4294967295
-26.840366 1549.3431 766 4294967295
-25.673395 1549.3431 766 4294967295
-24.544954 1549.4019 767 4294967295
-23.412844 1549.4606 768 4294967295
-22.242203 1549.4606 768 4294967295
-21.137615 1549.578 770 4294967295
-19.963303 1549.578 770 4294967295
-18.818348 1549.6367 771 4294967295
-17.642202 1549.6367 771 4294967295
-16.491743 1549.6954 772 4294967295
-15.313762 1549.6954 772 4294506742
-14.135779 1549.6954 772 4293847265
-12.957798 1549.6954 772 4294110693
110.5578 1549.6367 771 4288257747
111.73395 1549.6367 771 4292139519
112.9101 1549.6367 771 4292994303
114.08624 1549.6367 771 4291678456
115.08257 1549.578 770 4290164140
116.25688 1549.578 770 4287335041
117.06422 1549.4606 768 4288187270
118.04954 1549.4019 767 4292266693
119.21835 1549.4019 767 4292793300
120.38715 1549.4019 767 4292595665
121.36514 1549.3431 766 4292793811
122.53211 1549.3431 766 4292793811
123.69908 1549.3431 766 4292662743
124.66972 1549.2844 765 4292991708
125.6367 1549.2257 764 4293188315
126.8 1549.2257 764 4293385951
127.3578 1549.0496 761 4293582308
128.31192 1548.9908 760 4293253599
129.4679 1548.9908 760 4293187806
130.41652 1548.9321 759 4293253599
131.77982 1548.9908 760 4293516769
132.51376 1548.8734 758 4293648355
133.45322 1548.8147 757 4293386212
134.60367 1548.8147 757 4293386212
135.32111 1548.6973 755 4293254629
136.90459 1548.8147 757 4293254629
138.05504 1548.8147 757 4293385701
139.20551 1548.8147 757 4293517287
139.90826 1548.6973 755 4293386214
141.05504 1548.6973 755 4293188836
142.20183 1548.6973 755 4293189351
-42.431194 1547.5504 755 4294967284
-41.218349 1547.4935 754 4294967287
-40.073395 1547.4935 754 4294967286
-38.92844 1547.4935 754 4294967287
-37.844036 1547.5504 755 4294967290
-36.814678 1547.6642 757 4294966261
-35.7211 1547.7211 758 4294702060
-34.623852 1547.778 759 4294505712
-33.522934 1547.8348 760 4294966263
-32.366974 1547.8348 760 4294967295
-31.26055 1547.8917 761 4294967295
-30.150459 1547.9486 762 4294967295
-29.082569 1548.0624 764 4294967295
-27.919266 1548.0624 764 4294967295
-26.798164 1548.1193 765 4294967295
-25.633028 1548.1193 765 4294967295
-24.506422 1548.1761 766 4294967295
-23.339449 1548.1761 766 4294967295
-22.172478 1548.1761 766 4294967295
-21.038532 1548.233 767 4294967295
-19.869724 1548.233 767 4294967295
-18.78899 1548.4037 770 4294967295
-17.614679 1548.4037 770 4294967295
-16.466055 1548.4606 771 4294967295
-15.289908 1548.4606 771 4294967295
-14.113762 1548.4606 771 4294966521
-12.917431 1548.4037 770 4294505712
-11.779817 1548.5175 772 4293780697
109.38165 1548.4606 771 4288916678
110.5578 1548.4606 771 4290229738
111.73395 1548.4606 771 4293848575
112.9101 1548.4606 771 4293518591
113.90826 1548.4037 770 4288320948
115.08257 1548.4037 770 4287335784
116.25688 1548.4037 770 4288717437
117.06422 1548.2899 768 4289570486
118.04954 1548.233 767 4292267999
119.21835 1548.233 767 4292530123
120.19817 1548.1761 766 4292398538
121.17431 1548.1193 765 4292727757
122.33945 1548.1193 765 4292859343
123.50459 1548.1193 765 4292597202
124.4734 1548.0624 764 4292794582
125.0422 1547.8917 761 4293188308
126.2 1547.8917 761 4293385687
127.15596 1547.8348 760 4293385184
128.10826 1547.778 759 4293122011
129.26239 1547.778 759 4293121759
130.41652 1547.778 759 4293121759
131.57065 1547.778 759 4293188317
132.30275 1547.6642 757 4293451746
133.02753 1547.5504 755 4293254881
134.17432 1547.5504 755 4293254881
135.10458 1547.4935 754 4293189090
136.24954 1547.4935 754 4293123296
137.3945 1547.4935 754 4293253858
138.76147 1547.5504 755 4293385701
139.90826 1547.5504 755 4293188836
141.05504 1547.5504 755 4293254629
142.20183 1547.5504 755 4292992742
-41.218349 1546.3486 754 4294967293
-40.009174 1546.2936 753 4294967292
-38.92844 1546.3486 754 4294966003
-37.783485 1546.3486 754 4294967290
-36.638531 1546.3486 754 4294967293
-35.550457 1546.4037 755 4294966007
-34.403671 1546.4037 755 4294373357
-33.416515 1546.5688 758 4294570992
-32.315598 1546.6239 759 4294965744
-31.161469 1546.6239 759 4294967295
-30.102753 1546.7339 761 4294967295
-28.990826 1546.7889 762 4294967295
-27.919266 1546.899 764 4294967295
-26.798164 1546.9541 765 4294967295
-25.633028 1546.9541 765 4294967295
-24.46789 1546.9541 765 4294967295
-23.302752 1546.9541 765 4294967295
-22.137615 1546.9541 765 4294967295
-21.005505 1547.0092 766 4294967295
-19.838531 1547.0092 766 4294967295
-18.67156 1547.0092 766 4294967295
-17.53211 1547.0642 767 4294967295
-16.38899 1547.1193 768 4294967295
-15.218349 1547.1193 768 4294967295
-14.047707 1547.1193 768 4294967295
-12.877064 1547.1193 768 4294966009
-11.743119 1547.2294 770 4293912799
-10.568808 1547.2294 770 4293715163
107.02385 1546.899 764 4288193223
108.3578 1546.9541 765 4289048276
110.38532 1547.2294 770 4290951417
111.55963 1547.2294 770 4292464383
112.73395 1547.2294 770 4292464095
113.90826 1547.2294 770 4288187550
115.08257 1547.2294 770 4286937696
115.53027 1547.0092 766 4290556055
116.69725 1547.0092 766 4290690237
117.6789 1546.9541 765 4291874254
118.84404 1546.9541 765 4292267206
120.00917 1546.9541 765 4292530121
120.98349 1546.899 764 4292595403
122.14679 1546.899 764 4292529610
122.9211 1546.7889 762 4292464847
124.08073 1546.7889 762 4292793811
125.0422 1546.7339 761 4293056468
125.6 1546.5688 758 4293253847
126.7523 1546.5688 758 4293055451
127.90459 1546.5688 758 4293121244
129.05688 1546.5688 758 4293187806
130.20917 1546.5688 758 4293121757
131.1523 1546.5138 757 4293187802
131.88074 1546.4037 755 4293319644
133.02753 1546.4037 755 4292728537
134.17432 1546.4037 755 4293189088
135.32111 1546.4037 755 4293189088
136.4679 1546.4037 755 4293123294
137.61469 1546.4037 755 4293123294
138.53944 1546.3486 754 4293386210
139.90826 1546.4037 755 4293254883
141.05504 1546.4037 755 4293189090
-40.073395 1545.2036 754 4294967292
-38.92844 1545.2036 754 4294967288
-37.844036 1545.2568 755 4294967292
-36.697247 1545.2568 755 4294967293
-35.550457 1545.2568 755 4294966522
-34.403671 1545.2568 755 4294833910
-33.363304 1545.3633 757 4294636788
-32.264221 1545.4165 758 4294833645
-31.111927 1545.4165 758 4294967286
-29.959633 1545.4165 758 4294967295
-28.944954 1545.5762 761 4294967295
-27.831192 1545.6294 762 4294967295
-26.67156 1545.6294 762 4294967295
-25.592661 1545.7358 764 4294967295
-24.46789 1545.7889 765 4294967295
-23.302752 1545.7889 765 4294967295
-22.102753 1545.7358 764 4294967295
-20.972477 1545.7889 765 4294967295
-19.807339 1545.7889 765 4294967295
-18.642202 1545.7889 765 4294967295
-17.477064 1545.7889 765 4294967295
-16.337614 1545.8422 766 4294967295
-15.170642 1545.8422 766 4294967295
-14.025688 1545.8954 767 4294967295
-12.856881 1545.8954 767 4294967295
-11.706422 1545.9486 768 4294967033
-10.568808 1546.0551 770 4294110953
-9.394495 1546.0551 770 4293780956
105.86055 1545.7358 764 4288850633
107.02385 1545.7358 764 4289179868
108.3578 1545.7889 765 4291679999
109.52293 1545.7889 765 4292466175
110.68807 1545.7889 765 4290163420
111.85321 1545.7889 765 4288384915
113.01835 1545.7889 765 4287463813
114.18349 1545.7889 765 4288055700
115.34863 1545.7889 765 4291476936
116.51376 1545.7889 765 4291608772
117.49358 1545.7358 764 4292135116
118.84404 1545.7889 765 4292266689
120.00917 1545.7889 765 4292661447
120.41101 1545.5762 761 4292529608
121.18349 1545.4697 759 4292463815
122.14312 1545.4165 758 4292334033
123.09908 1545.3633 757 4292662741
124.24954 1545.3633 757 4292925400
125.4 1545.3633 757 4292991193
126.55046 1545.3633 757 4292858841
127.70092 1545.3633 757 4292990171
128.44037 1545.2568 755 4293122011
129.58716 1545.2568 755 4293187804
130.73395 1545.2568 755 4292991191
131.66972 1545.2036 754 4293320155
132.60184 1545.1505 753 4293188315
133.95964 1545.2036 754 4293320157
134.88808 1545.1505 753 4293123294
136.03119 1545.1505 753 4293057501
137.17432 1545.1505 753 4293188317
138.53944 1545.2036 754 4293517539
139.90826 1545.2568 755 4293254881
-38.92844 1544.0587 754 4294967286
-37.783485 1544.0587 754 4294967285
-36.638531 1544.0587 754 4294967029
-35.49358 1544.0587 754 4294966516
-34.348625 1544.0587 754 4294966263
-33.256882 1544.1101 755 4294965492
-32.212845 1544.2129 757 4294438371
-31.062386 1544.2129 757 4294964715
-29.911926 1544.2129 757 4294964716
-28.807339 1544.2642 758 4294967292
-27.699083 1544.3156 759 4294967295
-26.587156 1544.3669 760 4294967295
-25.47156 1544.4183 761 4294967295
-24.352293 1544.4697 762 4294967295
-23.192661 1544.4697 762 4294967295
-22.033028 1544.4697 762 4294967295
-20.939449 1544.5725 764 4294967295
-19.776146 1544.5725 764 4294967295
-18.612844 1544.5725 764 4294967295
-17.477064 1544.6239 765 4294967295
-16.311926 1544.6239 765 4294967295
-15.170642 1544.6752 766 4294967295
-14.00367 1544.6752 766 4294967295
-12.836698 1544.6752 766 4294967295
-11.688073 1544.7266 767 4294967295
-10.519266 1544.7266 767 4294967295
-9.3651381 1544.778 768 4294044646
-8.1944952 1544.778 768 4293649888
102.53211 1544.6239 765 4288389834
103.69725 1544.6239 765 4288653007
104.86239 1544.6239 765 4288325575
106.02752 1544.6239 765 4288588747
107.02385 1544.5725 764 4290098140
108.3578 1544.6239 765 4292071930
109.35046 1544.5725 764 4292334576
110.86239 1544.6752 766 4288584375
112.02936 1544.6752 766 4287792249
112.48441 1544.4697 762 4288779144
114.00367 1544.5725 764 4289766304
114.80367 1544.4697 762 4291805888
115.9633 1544.4697 762 4291870652
116.93761 1544.4183 761 4292133567
118.09541 1544.4183 761 4292133821
119.06422 1544.3669 760 4292199614
120.02936 1544.3156 759 4291740093
120.99083 1544.2642 758 4292529608
121.94862 1544.2129 757 4292333779
122.70642 1544.1101 755 4292531157
123.85321 1544.1101 755 4292596948
125 1544.1101 755 4292662741
126.14679 1544.1101 755 4292464597
127.29358 1544.1101 755 4292859355
128.44037 1544.1101 755 4292990943
129.37982 1544.0587 754 4292925150
130.3156 1544.0073 753 4292595665
131.24771 1543.9559 752 4293056216
132.38899 1543.9559 752 4293056988
133.74495 1544.0073 753 4293188317
134.67155 1543.9559 752 4292794330
135.5945 1543.9045 751 4292794330
136.95413 1543.9559 752 4292925661
138.09541 1543.9559 752 4293254883
-38.866055 1542.8643 753 4294967284
-37.722935 1542.8643 753 4294966512
-36.579815 1542.8643 753 4294965997
-35.436699 1542.8643 753 4294966254
-34.293579 1542.8643 753 4294967034
-33.203671 1542.9138 754 4294967295
-32.058716 1542.9138 754 4294967285
-30.963303 1542.9633 755 4294965742
-29.768806 1542.9138 754 4294768106
-28.669725 1542.9633 755 4294702312
-27.61101 1543.0624 757 4294967291
-26.502752 1543.1119 758 4294967295
-25.431192 1543.2111 760 4294967295
-24.275229 1543.2111 760 4294967295
-23.155964 1543.2605 761 4294967295
-21.998165 1543.2605 761 4294967295
-20.873394 1543.3101 762 4294967295
-19.713762 1543.3101 762 4294967295
-18.554129 1543.3101 762 4294967295
-17.449541 1543.4092 764 4294967295
-16.286238 1543.4092 764 4294967295
-15.122936 1543.4092 764 4294967295
-13.981651 1543.4587 765 4294967295
-12.816514 1543.4587 765 4294967295
-11.669724 1543.5083 766 4294967295
-10.502752 1543.5083 766 4294967295
-9.3504591 1543.5577 767 4294967295
-8.1816511 1543.5577 767 4293980400
-7.0128441 1543.5577 767 4293715682
-5.8532109 1543.6073 768 4293847267
-4.6752295 1543.5577 767 4293845718
101.36697 1543.4587 765 4288979914
102.53211 1543.4587 765 4288783825
103.69725 1543.4587 765 4288718032
104.86239 1543.4587 765 4288719302
105.86055 1543.4092 764 4289969369
106.68624 1543.3101 762 4290756575
107.84587 1543.3101 762 4290558939
109.0055 1543.3101 762 4289240490
109.99083 1543.2605 761 4286279804
111.32477 1543.3101 762 4287859322
112.30642 1543.2605 761 4290556836
113.46422 1543.2605 761 4291410348
114.62202 1543.2605 761 4291870899
115.77982 1543.2605 761 4291673266
116.93761 1543.2605 761 4292002231
117.90826 1543.2111 760 4292067772
118.87523 1543.1615 759 4292133821
119.83853 1543.1119 758 4291805888
120.79816 1543.0624 757 4292595403
121.55963 1542.9633 755 4292529620
122.70642 1542.9633 755 4292595413
123.65504 1542.9138 754 4292530644
124.8 1542.9138 754 4292859353
125.94495 1542.9138 754 4292662743
126.88624 1542.8643 753 4292728537
127.82385 1542.8147 752 4292991456
129.17247 1542.8643 753 4293057249
130.10641 1542.8147 752 4292530138
131.24771 1542.8147 752 4292793309
132.17615 1542.7651 751 4292991708
133.53027 1542.8147 752 4292991708
134.45505 1542.7651 751 4292728285
135.5945 1542.7651 751 4292794078
136.73395 1542.7651 751 4292794591
137.8734 1542.7651 751 4293057762
-37.722935 1541.7211 753 4294966775
-36.579815 1541.7211 753 4294964713
-35.436699 1541.7211 753 4294966512
-34.293579 1541.7211 753 4294967032
-33.150459 1541.7211 753 4294967294
-32.007339 1541.7211 753 4294967288
-30.86422 1541.7211 753 4294966516
-29.721102 1541.7211 753 4294570470
-28.577982 1541.7211 753 4294373348
-27.522936 1541.8165 755 4294702058
-26.376146 1541.8165 755 4294967291
-25.310091 1541.9119 757 4294967295
-24.198166 1541.9596 758 4294967295
-23.082569 1542.0073 759 4294967295
-21.998165 1542.1028 761 4294967295
-20.807339 1542.0551 760 4294967295
-19.68257 1542.1028 761 4294967295
-18.524771 1542.1028 761 4294967295
-17.394495 1542.1505 762 4294967295
-16.234863 1542.1505 762 4294967295
-15.122936 1542.2458 764 4294967295
-13.959633 1542.2458 764 4294967295
-12.816514 1542.2936 765 4294967295
-11.651376 1542.2936 765 4294967295
-10.486238 1542.2936 765 4294967295
-9.3357801 1542.3413 766 4294967295
-8.168807 1542.3413 766 4294967295
-7.0018349 1542.3413 766 4294637299
-5.8256879 1542.2936 765 4293847783
-4.6605506 1542.2936 765 4293648855
99.570641 1542.1028 761 4289177036
101.36697 1542.2936 765 4289242829
102.53211 1542.2936 765 4288915665
103.53394 1542.2458 764 4288915665
104.69725 1542.2458 764 4289244880
105.5266 1542.1505 762 4290297568
106.68624 1542.1505 762 4291742171
107.67523 1542.1028 761 4289571001
108.83303 1542.1028 761 4288449663
109.81651 1542.0551 760 4288054905
110.97248 1542.0551 760 4288515454
112.12844 1542.0551 760 4290950051
113.2844 1542.0551 760 4291607214
114.44037 1542.0551 760 4291475371
115.77982 1542.1028 761 4291409326
116.7523 1542.0551 760 4291935670
117.90826 1542.0551 760 4291805369
118.68624 1541.9596 758 4291936956
119.64771 1541.9119 757 4291937471
120.41284 1541.8165 755 4292200644
121.36514 1541.7688 754 4292200646
122.51009 1541.7688 754 4292463817
123.45688 1541.7211 753 4292661458
124.6 1541.7211 753 4292859093
125.54128 1541.6733 752 4292662743
126.68257 1541.6733 752 4292662743
127.61835 1541.6257 751 4292794078
128.96513 1541.6733 752 4292991456
130.10641 1541.6733 752 4292465108
131.0367 1541.6257 751 4292794330
132.17615 1541.6257 751 4292991708
133.3156 1541.6257 751 4292794330
134.45505 1541.6257 751 4292465882
135.37614 1541.578 750 4292728798
-36.579815 1540.578 753 4294967028
-35.436699 1540.578 753 4294967285
-34.238533 1540.5321 752 4294967285
-33.097248 1540.5321 752 4294967289
-31.955963 1540.5321 752 4294967028
-30.814678 1540.5321 752 4294966257
-29.673395 1540.5321 752 4294965744
-28.53211 1540.5321 752 4294965487
-27.434862 1540.578 753 4294834162
-26.291742 1540.578 753 4294176233
-25.188992 1540.6239 754 4294703092
-24.082569 1540.6697 755 4294967295
-23.009174 1540.7615 757 4294967295
-21.893578 1540.8074 758 4294967295
-20.774311 1540.8533 759 4294967295
-19.620184 1540.8533 759 4294967295
-18.495413 1540.899 760 4294967295
-17.366972 1540.9449 761 4294967295
-16.209175 1540.9449 761 4294967295
-15.07523 1540.9908 762 4294967295
-13.915596 1540.9908 762 4294967295
-12.79633 1541.0825 764 4294967295
-11.633027 1541.0825 764 4294967295
-10.469725 1541.0825 764 4294967295
-9.3064222 1541.0825 764 4294967295
-8.1559629 1541.1284 765 4294967295
-6.9908257 1541.1284 765 4294967295
-5.8256879 1541.1284 765 4294967295
-4.6532111 1541.0825 764 4294967295
-3.4899082 1541.0825 764 4293914343
-2.3302753 1541.1284 765 4293780956
99.570641 1540.9449 761 4289638358
100.72844 1540.9449 761 4289835480
101.88624 1540.9449 761 4289638871
103.04404 1540.9449 761 4290428386
104.20184 1540.9449 761 4291019740
105.35963 1540.9449 761 4290953947
106.51743 1540.9449 761 4289963960
107.50459 1540.899 760 4286871690
108.66055 1540.899 760 4287397754
109.6422 1540.8533 759 4289766302
110.97248 1540.899 760 4290555553
112.12844 1540.899 760 4290621602
113.10458 1540.8533 759 4291212706
114.07706 1540.8074 758 4291278499
115.22935 1540.8074 758 4291277999
116.38165 1540.8074 758 4291738550
117.34679 1540.7615 757 4291673268
118.49725 1540.7615 757 4292002233
119.26605 1540.6697 755 4291936958
120.41284 1540.6697 755 4292331716
121.36514 1540.6239 754 4292069055
122.31376 1540.578 753 4292266691
123.45688 1540.578 753 4292595665
124.4 1540.5321 752 4292727251
125.54128 1540.5321 752 4292596950
126.4789 1540.4862 751 4292596950
127.41284 1540.4403 750 4292728537
128.7578 1540.4862 751 4292991708
129.89725 1540.4862 751 4292662995
131.0367 1540.4862 751 4292991704
131.9633 1540.4403 750 4292925400
133.3156 1540.4862 751 4292727764
134.23853 1540.4403 750 4292728285
-35.379818 1539.3909 752 4294967292
-34.238533 1539.3909 752 4294965744
-33.097248 1539.3909 752 4294967286
-31.955963 1539.3909 752 4294965745
-30.814678 1539.3909 752 4294966773
-29.673395 1539.3909 752 4294967289
-28.53211 1539.3909 752 4294967032
-27.390825 1539.3909 752 4294966261
-26.291742 1539.4348 753 4294110953
-25.148624 1539.4348 753 4294307305
-24.044037 1539.4789 754 4294967295
-22.899082 1539.4789 754 4294967295
-21.78899 1539.5229 755 4294967295
-20.708258 1539.611 757 4294967295
-19.588991 1539.655 758 4294967295
-18.436697 1539.655 758 4294967295
-17.339449 1539.7432 760 4294967295
-16.209175 1539.7871 761 4294967295
-15.051376 1539.7871 761 4294967295
-13.893578 1539.7871 761 4294967295
-12.755963 1539.8312 762 4294967295
-11.596331 1539.8312 762 4294967295
-10.420183 1539.7871 761 4294967295
-9.2623854 1539.7871 761 4294967295
-8.1174316 1539.8312 762 4294967295
-6.957798 1539.8312 762 4294967295
-5.7981653 1539.8312 762 4294967295
-4.6385322 1539.8312 762 4294967295
-3.478899 1539.8312 762 4294967295
-2.3266056 1539.9193 764 4294439150
-1.1633028 1539.9193 764 4293847013
0 1539.8312 762 4293385685
1.1577982 1539.7871 761 4293385685
2.3155963 1539.7871 761 4293910230
99.570641 1539.7871 761 4289507284
100.72844 1539.7871 761 4289573078
101.72477 1539.7432 760 4289113810
103.04404 1539.7871 761 4290166498
104.0367 1539.7432 760 4291610835
105.35963 1539.7871 761 4290031802
106.34863 1539.7432 760 4288581503
107.33395 1539.6991 759 4287528559
108.3156 1539.655 758 4287923067
109.46789 1539.655 758 4290423201
110.62019 1539.655 758 4291081899
111.77248 1539.655 758 4290687141
112.92477 1539.655 758 4290817698
113.89542 1539.611 757 4291146663
115.04587 1539.611 757 4291212456
116.19633 1539.611 757 4291409578
116.97248 1539.5229 755 4291212717
118.11926 1539.5229 755 4292002233
119.07523 1539.4789 754 4291937471
120.02752 1539.4348 753 4292003264
120.97615 1539.3909 752 4292069057
122.11743 1539.3909 752 4292266693
123.25871 1539.3909 752 4292266702
124.2 1539.3468 751 4292529618
125.33945 1539.3468 751 4292529620
126.27523 1539.3027 750 4292595413
127.61835 1539.3468 751 4292595413
128.55046 1539.3027 750 4292793048
129.68808 1539.3027 750 4292464595
130.82568 1539.3027 750 4292793559
131.9633 1539.3027 750 4292596437
133.10092 1539.3027 750 4292793559
134.23853 1539.3027 750 4293121759
-34.238533 1538.2495 752 4294967287
-33.097248 1538.2495 752 4294967286
-31.955963 1538.2495 752 4294966773
-30.814678 1538.2495 752 4294967030
-29.625689 1538.2074 751 4294967292
-28.486238 1538.2074 751 4294967294
-27.346788 1538.2074 751 4294967295
-26.249542 1538.2495 752 4294967295
-25.108257 1538.2495 752 4294967287
-23.966972 1538.2495 752 4294571242
-22.862385 1538.2917 753 4294965748
-21.719267 1538.2917 753 4294967292
-20.609175 1538.334 754 4294967295
-19.495413 1538.3761 755 4294967295
-18.407339 1538.4606 757 4294967295
-17.284403 1538.5028 758 4294967295
-16.183487 1538.5872 760 4294967295
-15.00367 1538.5449 759 4294967295
-13.849542 1538.5449 759 4294967295
-12.715596 1538.5872 760 4294967295
-11.541285 1538.5449 759 4294967295
-10.403669 1538.5872 760 4294967295
-9.2477064 1538.5872 760 4294967295
-8.0788994 1538.5449 759 4294967295
-6.9247708 1538.5449 759 4294967295
-5.7706423 1538.5449 759 4294967295
-4.6238532 1538.5872 760 4294967295
-3.4733944 1538.6294 761 4294967295
-2.3155963 1538.6294 761 4294967295
-1.159633 1538.6715 762 4294967295
0 1538.6294 761 4294967292
1.1577982 1538.6294 761 4293782757
2.3192661 1538.6715 762 4293254360
3.478899 1538.6715 762 4293386203
97.100914 1538.5872 760 4289902038
98.256882 1538.5872 760 4289704916
99.570641 1538.6294 761 4289770711
100.56881 1538.5872 760 4290099420
101.72477 1538.5872 760 4290624986
102.88074 1538.5872 760 4290558937
104.0367 1538.5872 760 4289373343
105.19266 1538.5872 760 4286017900
106.17982 1538.5449 759 4286737760
107.1633 1538.5028 758 4289172357
108.14312 1538.4606 757 4289765791
109.46789 1538.5028 758 4290686893
110.62019 1538.5028 758 4290752416
111.77248 1538.5028 758 4290357658
112.92477 1538.5028 758 4290553767
113.89542 1538.4606 757 4291146161
115.04587 1538.4606 757 4291343270
115.82569 1538.3761 755 4291343270
116.78532 1538.334 754 4291212715
117.74129 1538.2917 753 4292068024
118.69358 1538.2495 752 4291871165
119.83486 1538.2495 752 4291607993
120.78165 1538.2074 751 4292068805
121.9211 1538.2074 751 4292266441
123.06055 1538.2074 751 4292200909
124 1538.1652 750 4292398288
125.13761 1538.1652 750 4292333010
126.07156 1538.1229 749 4292530390
127.20734 1538.1229 749 4292596183
128.34312 1538.1229 749 4292859355
129.4789 1538.1229 749 4292989919
130.61469 1538.1229 749 4293187554
131.53761 1538.0807 748 4293056218
-33.044037 1537.0679 751 4294966263
-31.904587 1537.0679 751 4294965749
-30.765137 1537.0679 751 4294966776
-29.530275 1536.9872 749 4294967292
-28.394495 1536.9872 749 4294967292
-27.258715 1536.9872 749 4294965749
-26.20734 1537.0679 751 4294967294
-25.06789 1537.0679 751 4294967295
-23.92844 1537.0679 751 4294899955
-22.825687 1537.1083 752 4294241507
-21.684404 1537.1083 752 4294965744
-20.543119 1537.1083 752 4294966259
-19.433027 1537.1487 753 4294967292
-18.319265 1537.189 754 4294967295
-17.201836 1537.2294 755 4294967295
-16.055046 1537.2294 755 4294967295
-14.955963 1537.3101 757 4294967295
-13.805505 1537.3101 757 4294967295
-12.675229 1537.3505 758 4294967295
-11.504587 1537.3101 757 4294967295
-10.370643 1537.3505 758 4294967295
-9.2183485 1537.3505 758 4294967295
-8.0660553 1537.3505 758 4294967295
-6.9137616 1537.3505 758 4294967295
-5.7614679 1537.3505 758 4294967295
-4.6165137 1537.3909 759 4294967295
-3.46789 1537.4312 760 4294967295
-2.3155963 1537.4716 761 4294967295
-1.1577982 1537.4716 761 4294967295
0 1537.4312 760 4294967295
1.1577982 1537.4716 761 4294967295
2.3155963 1537.4716 761 4294374381
3.46789 1537.4312 760 4294110953
94.788994 1537.4312 760 4289440724
95.944954 1537.4312 760 4289967068
97.100914 1537.4312 760 4289967831
98.256882 1537.4312 760 4289902038
99.412842 1537.4312 760 4289967835
100.56881 1537.4312 760 4290099422
101.5633 1537.3909 759 4291216079
102.71743 1537.3909 759 4290031548
103.70642 1537.3505 758 4287926901
104.85872 1537.3505 758 4286018904
106.01101 1537.3505 758 4287525466
106.99266 1537.3101 757 4290749323
107.79816 1537.2294 755 4290882469
109.29358 1537.3101 757 4290816676
110.44404 1537.3101 757 4290489760
111.77248 1537.3505 758 4290226844
112.92477 1537.3505 758 4290487711
113.53211 1537.2294 755 4291014055
114.6789 1537.2294 755 4290949029
115.64037 1537.189 754 4290949029
116.41101 1537.1083 752 4291146409
117.55229 1537.1083 752 4291672753
118.31193 1537.0275 750 4291673016
119.44954 1537.0275 750 4291738809
120.58716 1537.0275 750 4292199614
121.72477 1537.0275 750 4292265407
122.66422 1536.9872 749 4291872198
123.6 1536.9468 748 4292332749
124.73395 1536.9468 748 4292135632
125.86789 1536.9468 748 4292530390
127.00183 1536.9468 748 4292596437
128.13577 1536.9468 748 4292596437
129.26973 1536.9468 748 4292858071
130.40367 1536.9468 748 4292989657
131.53761 1536.9468 748 4292989655
-32.937614 1535.8513 749 4294965500
-31.801834 1535.8513 749 4294966265
-30.666056 1535.8513 749 4294967294
-29.482569 1535.8129 748 4294967287
-28.348623 1535.8129 748 4294967290
-27.258715 1535.8513 749 4294966771
-26.122936 1535.8513 749 4294966771
-24.987156 1535.8513 749 4294967287
-23.851376 1535.8513 749 4294967288
-22.752293 1535.8899 750 4294967286
-21.649542 1535.9285 751 4294967029
-20.510092 1535.9285 751 4294966261
-19.401834 1535.9669 752 4294438889
-18.289907 1536.0055 753 4294967282
-17.14679 1536.0055 753 4294967295
-16.029358 1536.0441 754 4294967295
-14.908257 1536.0825 755 4294967295
-13.761468 1536.0825 755 4294967295
-12.614679 1536.0825 755 4294967295
-11.46789 1536.0825 755 4294967295
-10.321101 1536.0825 755 4294967295
-9.2036695 1536.1597 757 4294967295
-8.0532112 1536.1597 757 4294967295
-6.9027524 1536.1597 757 4294967295
-5.7522936 1536.1597 757 4294967295
-4.6091743 1536.1981 758 4294967295
-3.4623854 1536.2367 759 4294967295
-2.3082569 1536.2367 759 4294967295
-1.1541284 1536.2367 759 4294967295
0 1536.2367 759 4294967295
1.1541284 1536.2367 759 4294967295
2.3119266 1536.2753 760 4294967295
3.46789 1536.2753 760 4294967295
94.788994 1536.2753 760 4289309658
95.792664 1536.2367 759 4289901538
96.946793 1536.2367 759 4290163929
98.100914 1536.2367 759 4290953445
99.255043 1536.2367 759 4291215838
100.40917 1536.2367 759 4290228943
101.40183 1536.1981 758 4288452255
102.55413 1536.1981 758 4285952121
103.70642 1536.1981 758 4286674786
104.69174 1536.1597 757 4288845954
105.8422 1536.1597 757 4289436558
106.99266 1536.1597 757 4290291867
107.79816 1536.0825 755 4290357662
108.94495 1536.0825 755 4290357662
110.09174 1536.0825 755 4290423966
111.5945 1536.1597 757 4290489760
112.74496 1536.1597 757 4290620067
113.35046 1536.0441 754 4290751653
114.49541 1536.0441 754 4290751655
115.45505 1536.0055 753 4290751655
116.41101 1535.9669 752 4291146157
117.3633 1535.9285 751 4291475121
118.1211 1535.8513 749 4291607221
119.06422 1535.8129 748 4291673270
120.19817 1535.8129 748 4292002221
121.33211 1535.8129 748 4292199601
122.06973 1535.7358 746 4292068805
123.2 1535.7358 746 4292529356
124.33028 1535.7358 746 4292267217
125.46055 1535.7358 746 4292990941
126.59083 1535.7358 746 4292530644
127.7211 1535.7358 746 4292398802
128.85138 1535.7358 746 4292595413
-32.937614 1534.7156 749 4293711068
-30.666056 1534.7156 749 4294965495
-29.530275 1534.7156 749 4294967293
-28.348623 1534.679 748 4294967288
-27.258715 1534.7156 749 4294967287
-26.122936 1534.7156 749 4294967030
-24.946789 1534.679 748 4294967030
-23.851376 1534.7156 749 4294967291
-22.715597 1534.7156 749 4294967291
-21.614679 1534.7523 750 4294967290
-20.510092 1534.7889 751 4294966003
-19.370642 1534.7889 751 4294635752
-18.26055 1534.8257 752 4294699999
-17.119267 1534.8257 752 4294966768
-15.977982 1534.8257 752 4294967295
-14.836698 1534.8257 752 4294967295
-13.717431 1534.8624 753 4294967295
-12.594496 1534.899 754 4294967295
-11.449541 1534.899 754 4294967295
-10.304587 1534.899 754 4294967295
-9.1596327 1534.899 754 4294967295
-8.027523 1534.9358 755 4294967295
-6.880734 1534.9358 755 4294967295
-5.7339449 1534.9358 755 4294967295
-4.6018348 1535.0092 757 4294967295
-3.4568808 1535.0459 758 4294967295
-2.3045871 1535.0459 758 4294967295
-1.1541284 1535.0825 759 4294967295
0 1535.0459 758 4294967295
1.1541284 1535.0825 759 4294967295
2.3082569 1535.0825 759 4294967295
3.4623854 1535.0825 759 4294967295
4.6018348 1535.0092 757 4294967295
5.7522936 1535.0092 757 4294967295
93.633026 1535.1193 760 4288981974
94.638535 1535.0825 759 4288981461
95.792664 1535.0825 759 4289639134
96.792664 1535.0459 758 4290163416
97.944954 1535.0459 758 4291018725
99.097244 1535.0459 758 4291346643
100.0899 1535.0092 757 4289570488
101.24036 1535.0092 757 4287269500
102.39082 1535.0092 757 4286151020
103.54128 1535.0092 757 4287396710
104.19083 1534.899 754 4289633671
105.50459 1534.9358 755 4289765269
106.31009 1534.8624 753 4289962904
107.45321 1534.8624 753 4289569945
108.42202 1534.8257 752 4290030496
109.38715 1534.7889 751 4290227103
110.5266 1534.7889 751 4290292897
111.66605 1534.7889 751 4290620580
112.62386 1534.7523 750 4290686373
114.12844 1534.8257 752 4290816676
115.26972 1534.8257 752 4290948262
116.0367 1534.7523 750 4291146157
116.79633 1534.679 748 4291540915
117.54862 1534.6055 746 4291476153
118.6789 1534.6055 746 4291542202
119.80917 1534.6055 746 4291673268
120.93945 1534.6055 746 4292002233
121.87156 1534.5688 745 4292133569
123 1534.5688 745 4292265155
124.12844 1534.5688 745 4292069067
125.46055 1534.6055 746 4292595667
126.59083 1534.6055 746 4292333779
-31.801834 1533.5798 749 4292857808
-30.666056 1533.5798 749 4294107874
-29.530275 1533.5798 749 4294965485
-28.348623 1533.5449 748 4294967288
-27.21468 1533.5449 748 4294967292
-26.080734 1533.5449 748 4294967294
-24.946789 1533.5449 748 4294967288
-23.812843 1533.5449 748 4294967287
-22.6789 1533.5449 748 4294967289
-21.579817 1533.5798 749 4294967289
-20.444036 1533.5798 749 4294967285
-19.339449 1533.6146 750 4294967028
-18.231194 1533.6495 751 4294966003
-17.119267 1533.6844 752 4294965231
-15.952293 1533.6495 751 4294965496
-14.836698 1533.6844 752 4294768117
-13.717431 1533.7192 753 4294967294
-12.574312 1533.7192 753 4294967295
-11.449541 1533.7542 754 4294967295
-10.288074 1533.7192 753 4294967295
-9.1449537 1533.7192 753 4294967295
-8.014679 1533.7542 754 4294967295
-6.8697248 1533.7542 754 4294967295
-5.7247705 1533.7542 754 4294967295
-4.5798163 1533.7542 754 4294967295
-3.440367 1533.7889 755 4294967295
-2.3009174 1533.8588 757 4294967295
-1.1504587 1533.8588 757 4294967295
0 1533.7889 755 4294967295
1.1504587 1533.8588 757 4294967295
2.3009174 1533.8588 757 4294967295
3.4513762 1533.8588 757 4294967295
4.6018348 1533.8588 757 4294967295
5.7522936 1533.8588 757 4294967295
6.9027524 1533.8588 757 4294967295
8.0532112 1533.8588 757 4294967295
9.2036695 1533.8588 757 4294967295
10.321101 1533.7889 755 4294967295
92.330276 1533.9285 759 4289047513
93.484406 1533.9285 759 4289442271
94.638535 1533.9285 759 4290690266
95.792664 1533.9285 759 4291940077
96.946793 1533.9285 759 4291610596
97.944954 1533.8936 758 4289439427
98.939453 1533.8588 757 4286872473
100.0899 1533.8588 757 4285359234
100.91743 1533.7889 755 4286673515
102.06422 1533.7889 755 4288778892
103.04587 1533.7542 754 4289699476
104.19083 1533.7542 754 4289765269
105.16697 1533.7192 753 4289698961
106.13945 1533.6844 752 4290027925
107.10825 1533.6495 751 4289897622
108.2477 1533.6495 751 4290226844
109.38715 1533.6495 751 4290226590
110.34863 1533.6146 750 4290357919
111.48624 1533.6146 750 4290620067
112.4422 1533.5798 749 4290751653
113.57798 1533.5798 749 4290816676
115.0844 1533.6495 751 4290882469
115.84954 1533.5798 749 4291014568
116.79633 1533.5449 748 4291541168
117.54862 1533.4752 746 4291541948
118.48624 1533.4403 745 4291541948
119.61468 1533.4403 745 4291607225
120.93945 1533.4752 746 4292001727
121.67339 1533.4055 744 4292068544
122.8 1533.4055 744 4292002751
124.12844 1533.4403 745 4291871946
-30.616514 1532.411 748 4291282646
-29.482569 1532.411 748 4293580248
-28.348623 1532.411 748 4294962928
-27.21468 1532.411 748 4294967031
-26.080734 1532.411 748 4294967291
-24.866055 1532.345 746 4294967290
-23.735781 1532.345 746 4294967030
-22.605505 1532.345 746 4294966773
-21.544954 1532.411 748 4294967288
-20.411009 1532.411 748 4294967291
-19.308256 1532.4441 749 4294967290
-18.201836 1532.4771 750 4294967292
-17.06422 1532.4771 750 4294966774
-15.926605 1532.4771 750 4294637299
-14.788991 1532.4771 750 4294374127
-13.673394 1532.5101 751 4294439143
-12.554129 1532.5431 752 4294967292
-11.412844 1532.5431 752 4294967295
-10.27156 1532.5431 752 4294967295
-9.1302748 1532.5431 752 4294967295
-7.9889908 1532.5431 752 4294967295
-6.8587155 1532.5762 753 4294967295
-5.7155962 1532.5762 753 4294967295
-4.5724769 1532.5762 753 4294967295
-3.4293578 1532.5762 753 4294967295
-2.2899082 1532.6091 754 4294967295
-1.1449541 1532.6091 754 4294967295
0 1532.5431 752 4294967295
1.1431192 1532.5762 753 4294967295
2.2935779 1532.6422 755 4294967295
3.440367 1532.6422 755 4294967295
4.5871558 1532.6422 755 4294967295
5.7339449 1532.6422 755 4294967295
6.9027524 1532.7083 757 4294967295
8.0532112 1532.7083 757 4294967295
9.2036695 1532.7083 757 4294967295
10.321101 1532.6422 755 4294967295
11.46789 1532.6422 755 4294967295
87.15596 1532.6422 755 4289112013
88.30275 1532.6422 755 4289177807
89.449539 1532.6422 755 4289047254
90.596329 1532.6422 755 4288981461
92.330276 1532.7743 759 4289244124
93.484406 1532.7743 759 4290099433
94.337616 1532.7083 757 4291084504
95.640366 1532.7413 758 4291347676
96.638535 1532.7083 757 4291478481
97.788994 1532.7083 757 4288386209
98.623856 1532.6422 755 4286346597
99.611008 1532.6091 754 4286083682
100.75597 1532.6091 754 4287330403
101.73762 1532.5762 753 4289435523
102.7156 1532.5431 752 4290224021
103.68991 1532.5101 751 4289895313
104.66055 1532.4771 750 4289632656
105.79816 1532.4771 750 4290027414
106.93578 1532.4771 750 4289831062
107.89909 1532.4441 749 4290225820
109.03486 1532.4441 749 4290160797
109.99266 1532.411 748 4290160797
111.1266 1532.411 748 4290488224
112.26055 1532.411 748 4290488224
113.39449 1532.411 748 4290619551
114.52844 1532.411 748 4290948516
115.66238 1532.411 748 4290817446
116.41835 1532.345 746 4291080618
117.16697 1532.2789 744 4291014318
118.29358 1532.2789 744 4291540663
119.42018 1532.2789 744 4291409847
120.74312 1532.3119 745 4291804604
121.67339 1532.2789 744 4292068542
122.6 1532.2458 743 4292002749
-29.482569 1531.2771 748 4291476950
-28.348623 1531.2771 748 4292134880
-27.21468 1531.2771 748 4293318357
-26.080734 1531.2771 748 4294831852
-24.866055 1531.2147 746 4294965745
-23.735781 1531.2147 746 4294967289
-22.568808 1531.1835 745 4294967294
-21.440367 1531.1835 745 4294967292
-20.344954 1531.2147 746 4294967287
-19.277063 1531.2771 748 4294967287
-18.14312 1531.2771 748 4294967294
-17.036697 1531.3082 749 4294967295
-15.900917 1531.3082 749 4294967295
-14.765138 1531.3082 749 4294967295
-13.651376 1531.3395 750 4294967290
-12.533945 1531.3706 751 4294899694
-11.394495 1531.3706 751 4294701806
-10.255046 1531.3706 751 4294438891
-9.1155968 1531.3706 751 4294965746
-7.9633026 1531.3395 750 4294967295
-6.8587155 1531.433 753 4294967295
-5.6972475 1531.3706 751 4294967295
-4.5577984 1531.3706 751 4294967295
-3.4238532 1531.4019 752 4294967295
-2.2862384 1531.433 753 4294967295
-1.1431192 1531.433 753 4294967295
0 1531.4019 752 4294967295
1.1412843 1531.4019 752 4294967295
2.2862384 1531.433 753 4294967295
3.440367 1531.4954 755 4294967295
4.5871558 1531.4954 755 4294967295
5.7339449 1531.4954 755 4294967295
6.880734 1531.4954 755 4294967295
8.0532112 1531.5577 757 4294967295
9.2036695 1531.5577 757 4294967295
10.321101 1531.4954 755 4294967295
11.46789 1531.4954 755 4294967295
84.590828 1531.433 753 4289441237
85.871559 1531.4642 754 4289178322
87.15596 1531.4954 755 4289047000
88.161469 1531.4642 754 4288981207
89.449539 1531.4954 755 4289374679
90.596329 1531.4954 755 4290427623
91.743118 1531.4954 755 4291217126
93.187157 1531.5577 757 4291480041
94.337616 1531.5577 757 4290952904
95.183487 1531.4954 755 4287334289
96.176147 1531.4642 754 4286607459
97.321098 1531.4642 754 4285949273
98.466057 1531.4642 754 4287132768
99.451378 1531.433 753 4288580470
100.43303 1531.4019 752 4288843906
101.57431 1531.4019 752 4289107077
102.55046 1531.3706 751 4289371013
103.68991 1531.3706 751 4289371013
104.49174 1531.3082 749 4289502363
105.62753 1531.3082 749 4289699998
106.59083 1531.2771 748 4289831066
107.72477 1531.2771 748 4290225568
108.85872 1531.2771 748 4290225822
109.6367 1531.2147 746 4290160029
110.76698 1531.2147 746 4290291104
111.7156 1531.1835 745 4290291104
112.84404 1531.1835 745 4290553756
113.97248 1531.1835 745 4291474858
114.91376 1531.1523 744 4291278249
116.04037 1531.1523 744 4291409578
116.97615 1531.1211 743 4291344303
118.10091 1531.1211 743 4291410096
119.22569 1531.1211 743 4291409849
120.35046 1531.1211 743 4291738813
-28.348623 1530.1431 748 4290033617
-27.21468 1530.1431 748 4291675596
-25.99633 1530.0844 746 4293254629
-24.866055 1530.0844 746 4294700010
-23.697248 1530.0551 745 4294966522
-22.568808 1530.0551 745 4294967292
-21.440367 1530.0551 745 4294967292
-20.311926 1530.0551 745 4294967289
-19.183487 1530.0551 745 4294966775
-18.084404 1530.0844 746 4294966261
-16.954128 1530.0844 746 4294967295
-15.875229 1530.1431 748 4294967295
-14.741284 1530.1431 748 4294967295
-13.629357 1530.1725 749 4294967295
-12.493578 1530.1725 749 4294965746
-11.357799 1530.1725 749 4294569705
-10.205504 1530.1431 748 4294438119
-9.027523 1530.0551 745 4294306271
-7.9119267 1530.0844 746 4294967028
-6.7596331 1530.0256 744 4294967295
-5.6788993 1530.1725 749 4294967295
-4.5431194 1530.1725 749 4294967295
-3.4128439 1530.2018 750 4294967295
-2.2788992 1530.2312 751 4294967295
-1.1394496 1530.2312 751 4294967295
0 1530.2312 751 4294967295
1.1394496 1530.2312 751 4294967295
2.2788992 1530.2312 751 4294967295
3.4293578 1530.2899 753 4294967295
4.5798163 1530.3192 754 4294967295
5.7339449 1530.3486 755 4294967295
6.880734 1530.3486 755 4294967295
8.027523 1530.3486 755 4294967295
9.1743116 1530.3486 755 4294967295
10.321101 1530.3486 755 4294967295
11.46789 1530.3486 755 4294967295
12.614679 1530.3486 755 4294967295
78.875229 1530.2899 753 4293714146
80.018349 1530.2899 753 4291612896
81.161469 1530.2899 753 4289836486
82.304588 1530.2899 753 4288849868
83.447708 1530.2899 753 4288981711
84.590828 1530.2899 753 4289180118
85.733948 1530.2899 753 4288916947
87.01651 1530.3192 754 4289374416
88.161469 1530.3192 754 4289571794
89.306419 1530.3192 754 4289833696
90.451378 1530.3192 754 4290623469
91.30275 1530.2605 752 4291282650
92.889908 1530.3486 755 4290624721
94.036697 1530.3486 755 4290096562
95.031189 1530.3192 754 4285951603
96.022018 1530.2899 753 4286603093
97.321098 1530.3192 754 4287261024
98.308258 1530.2899 753 4288182891
99.29174 1530.2605 752 4289367422
100.27156 1530.2312 751 4289369480
101.41101 1530.2312 751 4289106564
102.55046 1530.2312 751 4288385415
103.35596 1530.1725 749 4288977552
104.49174 1530.1725 749 4289372310
105.45688 1530.1431 748 4289503896
106.24587 1530.0844 746 4289830549
107.37614 1530.0844 746 4290093720
108.50642 1530.0844 746 4290225820
109.45872 1530.0551 745 4290160027
110.58716 1530.0551 745 4290291102
111.53394 1530.0256 744 4290356895
112.47707 1529.9963 743 4290553758
113.41651 1529.9669 742 4290882723
114.53945 1529.9669 742 4290751653
115.85138 1529.9963 743 4291277997
116.78532 1529.9669 742 4291279021
117.90826 1529.9669 742 4291147692
119.03119 1529.9669 742 4291147192
-24.78532 1528.899 744 4292134610
