# .PCD v0.7 - Point Cloud Data file format
VERSION 0.7
FIELDS x y z rgb
SIZE 4 4 4 4
TYPE F F F U
COUNT 1 1 1 1
WIDTH 1367
HEIGHT 1
VIEWPOINT 0 0 0 1 0 0 0
POINTS 1367
DATA ascii
-41.236698 1585.9835 791 4293582280
-40.084404 1586.0955 792 4293648073
-38.869724 1586.0955 792 4293516226
-37.655045 1586.0955 792 4293516226
-36.660549 1586.5431 796 4293318847
-35.2789 1586.2073 793 4293318847
-34.216515 1586.5431 796 4293450431
-33.044037 1586.655 797 4293647810
-31.772476 1586.5431 796 4293516226
-30.596331 1586.655 797 4293779398
-29.372477 1586.655 797 4293713353
-28.31743 1587.1028 801 4293713353
-27.086239 1587.1028 801 4293515470
-25.893578 1587.2147 802 4294107863
-24.770641 1587.5504 805 4293779149
130.04587 1587.5504 805 4288782017
131.0899 1587.4385 804 4288386487
131.93394 1587.2147 802 4288189365
132.96881 1587.1028 801 4288123833
134 1586.9908 800 4288715970
134.42201 1586.5431 796 4288586169
135.64404 1586.5431 796 4289638857
136.86606 1586.5431 796 4290690248
137.6734 1586.3192 794 4293782776
138.89174 1586.3192 794 4294176757
139.89908 1586.2073 793 4294176757
141.1156 1586.2073 793 4294045682
142.33211 1586.2073 793 4293979633
143.33211 1586.0955 792 4294045428
144.32845 1585.9835 791 4294374392
145.54129 1585.9835 791 4294110451
146.31009 1585.7596 789 4293978864
147.51927 1585.7596 789 4294176759
148.50275 1585.6477 788 4294045430
149.48257 1585.5358 787 4293913842
150.68808 1585.5358 787 4293782255
151.4312 1585.3119 785 4293716206
152.39999 1585.2 784 4293584877
153.60001 1585.2 784 4293716460
154.56331 1585.0881 783 4293716460
155.52293 1584.9762 782 4293585131
156.71927 1584.9762 782 4293716460
157.9156 1584.9762 782 4293255907
158.62386 1584.7523 780 4293453542
159.81651 1584.7523 780 4293584627
160.76147 1584.6404 779 4293584627
161.9523 1584.6404 779 4293583855
-57.159634 1583.4496 779 4294967295
-56.227524 1583.7798 782 4294967295
-55.031193 1583.7798 782 4294967295
-53.834862 1583.7798 782 4294967295
-52.638531 1583.7798 782 4294967295
-51.442204 1583.7798 782 4294967295
-50.400002 1584 784 4294967295
-49.200001 1584 784 4294967295
-48.073395 1584.1101 785 4294967295
-47.014679 1584.3303 787 4294967295
-45.809174 1584.3303 787 4294967295
-44.603668 1584.3303 787 4293980400
-43.530273 1584.5504 789 4293386453
-42.321102 1584.5504 789 4293715161
-41.111927 1584.5504 789 4293648327
-40.023853 1584.7706 791 4293714120
-38.869724 1584.8807 792 4293450177
-37.655045 1584.8807 792 4293450177
-36.495415 1584.9908 793 4293580985
-35.2789 1584.9908 793 4293646779
-34.113762 1585.101 794 4293252802
-32.994495 1585.321 796 4293515974
-31.677065 1585.101 794 4293450177
-30.550459 1585.321 796 4293713605
-29.372477 1585.4312 797 4293647560
-28.148624 1585.4312 797 4293647560
-26.965137 1585.5413 798 4293253320
-25.73945 1585.5413 798 4293582028
-24.623854 1585.8716 801 4293713357
131.0899 1586.2018 804 4288320183
131.93394 1585.9817 802 4288385976
132.77065 1585.7615 800 4288189367
133.60001 1585.5413 798 4288912833
134.42201 1585.321 796 4288848322
135.23669 1585.101 794 4289769423
136.45505 1585.101 794 4290623428
137.6734 1585.101 794 4294044408
138.68257 1584.9908 793 4294242293
139.68808 1584.8807 792 4294242293
140.90276 1584.8807 792 4294045682
141.90276 1584.7706 791 4293913839
143.1156 1584.7706 791 4293584877
143.89174 1584.5504 789 4293913842
145.10092 1584.5504 789 4293584877
146.08807 1584.4404 788 4293716206
147.51927 1584.5504 789 4294176244
148.27707 1584.3303 787 4293847535
149.02753 1584.1101 785 4293387497
150.22935 1584.1101 785 4293782255
151.2 1584 784 4293848046
152.16698 1583.8899 783 4293782253
153.13028 1583.7798 782 4293387749
154.3266 1583.7798 782 4293453542
155.52293 1583.7798 782 4293321191
156.23853 1583.5596 780 4293518313
157.4312 1583.5596 780 4293255655
158.37982 1583.4496 779 4293321704
159.57065 1583.4496 779 4292993003
160.51376 1583.3395 778 4293058796
161.45322 1583.2294 777 4293387245
-57.07156 1582.1505 778 4294967295
-55.968807 1582.2587 779 4294967295
-54.777981 1582.2587 779 4294967295
-53.587154 1582.2587 779 4294967295
-52.477066 1582.3669 780 4294967295
-51.284405 1582.3669 780 4294967295
-50.322937 1582.6918 783 4294967295
-49.200001 1582.8 784 4294967295
-48.073395 1582.9082 785 4294967295
-46.871559 1582.9082 785 4294967295
-45.809174 1583.1248 787 4294967295
-44.603668 1583.1248 787 4294112240
-43.398167 1583.1248 787 4293584608
-42.256882 1583.233 788 4293716195
-41.049541 1583.233 788 4293583050
-39.902752 1583.3413 789 4293780173
-38.811008 1583.5579 791 4293779914
-37.598164 1583.5579 791 4293714120
-36.495415 1583.7743 793 4293582017
-35.225689 1583.666 792 4293976775
-34.062386 1583.7743 793 4293911252
-32.895412 1583.8826 794 4293845203
-31.677065 1583.8826 794 4293582799
-30.550459 1584.0991 796 4294043350
-29.32844 1584.0991 796 4294042318
-28.148624 1584.2073 797 4294042318
-26.92477 1584.2073 797 4293779410
-25.73945 1584.3156 798 4293647823
-24.623854 1584.6404 801 4293713619
129.85321 1584.9651 804 4288976580
130.70091 1584.7487 802 4289436349
131.73761 1584.6404 801 4289502142
132.77065 1584.5321 800 4288451517
133.60001 1584.3156 798 4289175240
134.42201 1584.0991 796 4289242568
135.23669 1583.8826 794 4290032084
136.45505 1583.8826 794 4290622654
137.46605 1583.7743 793 4293978353
138.68257 1583.7743 793 4294505460
139.68808 1583.666 792 4294308338
140.68991 1583.5579 791 4294110705
141.90276 1583.5579 791 4294110705
142.68257 1583.3413 789 4293781488
143.89174 1583.3413 789 4294110453
144.88074 1583.233 788 4293846511
146.08807 1583.233 788 4293715182
147.07156 1583.1248 787 4293519084
147.82568 1582.9082 785 4293453291
148.8 1582.8 784 4293584107
150 1582.8 784 4294044658
150.96881 1582.6918 783 4293979116
151.93394 1582.5835 782 4293979116
153.13028 1582.5835 782 4293650152
153.85321 1582.3669 780 4293650152
155.04587 1582.3669 780 4293386730
155.99817 1582.2587 779 4293584109
157.189 1582.2587 779 4293386730
158.37982 1582.2587 779 4293518315
159.32477 1582.1505 778 4293124076
160.26605 1582.0422 777 4293058283
161.20367 1581.934 776 4293255146
161.88625 1581.7174 774 4293189097
-58.170643 1580.8551 777 4294967295
-57.07156 1580.9614 778 4294967295
-55.882568 1580.9614 778 4294967295
-54.693577 1580.9614 778 4294967295
-53.504585 1580.9614 778 4294967295
-52.315598 1580.9614 778 4294967295
-51.126606 1580.9614 778 4294967295
-49.937614 1580.9614 778 4294967295
-48.899082 1581.1743 780 4294967295
-47.85321 1581.3872 782 4294967295
-46.728439 1581.4935 783 4294967295
-45.669724 1581.7064 785 4294967295
-44.467892 1581.7064 785 4294967295
-43.266056 1581.7064 785 4294637299
-42.192661 1581.9193 787 4294110955
-40.987156 1581.9193 787 4293320909
-39.842201 1582.0256 788 4293518289
-38.693577 1582.1321 789 4293910728
-37.598164 1582.345 791 4293779398
-36.440369 1582.4514 792 4293582280
-35.225689 1582.4514 792 4293779660
-34.062386 1582.5579 793 4293845203
-32.895412 1582.6642 794 4293779410
-31.677065 1582.6642 794 4293582799
-30.458715 1582.6642 794 4293977556
-29.32844 1582.8771 796 4294042833
-28.148624 1582.9835 797 4293911248
-26.92477 1582.9835 797 4294042581
-25.73945 1583.0898 798 4293911252
-24.587156 1583.3027 800 4293910998
131.73761 1583.4092 801 4289632960
132.37431 1583.0898 798 4288975546
133.2 1582.8771 796 4289765062
134.42201 1582.8771 796 4289702088
135.23669 1582.6642 794 4289767881
136.24954 1582.5579 793 4290556861
137.46605 1582.5579 793 4294109940
138.47339 1582.4514 792 4294571002
139.68808 1582.4514 792 4294110451
140.68991 1582.345 791 4293781742
141.90276 1582.345 791 4293847535
142.68257 1582.1321 789 4293715180
143.6734 1582.0256 788 4294307316
144.66055 1581.9193 787 4294044658
145.86606 1581.9193 787 4293715693
146.62386 1581.7064 785 4293519084
147.60001 1581.6 784 4293519084
148.57248 1581.4935 783 4293715184
149.77065 1581.4935 783 4293649135
150.73761 1581.3872 782 4293319652
151.93394 1581.3872 782 4293714409
152.66055 1581.1743 780 4293583591
153.85321 1581.1743 780 4293517798
154.80734 1581.0679 779 4293321191
155.99817 1581.0679 779 4293386984
156.94679 1580.9614 778 4293255144
158.13577 1580.9614 778 4293320937
159.0789 1580.8551 777 4293518315
160.01834 1580.7487 776 4293386730
161.20367 1580.7487 776 4293321191
161.88625 1580.5358 774 4293321191
-58.260551 1579.7725 778 4294967295
-57.07156 1579.7725 778 4294967295
-55.882568 1579.7725 778 4294967295
-54.693577 1579.7725 778 4294967295
-53.42202 1579.6678 777 4294967295
-52.234863 1579.6678 777 4294967295
-51.047707 1579.6678 777 4294967295
-49.86055 1579.6678 777 4294967295
-48.748623 1579.7725 778 4294967295
-47.633026 1579.8771 779 4294967295
-46.656879 1580.1908 782 4294967295
-45.599998 1580.4 784 4294967295
-44.400002 1580.4 784 4294967295
-43.266056 1580.5046 785 4294967295
-42.192661 1580.7137 787 4294177261
-40.987156 1580.7137 787 4293780697
-39.781651 1580.7137 787 4293977820
-38.634861 1580.8184 788 4294239951
-37.484406 1580.923 789 4294502867
-36.385323 1581.1321 791 4293911252
-35.172478 1581.1321 791 4293845203
-34.011009 1581.2367 792 4293648596
-32.845871 1581.3413 793 4293911511
-31.677065 1581.4459 794 4293977556
-30.458715 1581.4459 794 4294438107
-29.32844 1581.655 796 4293911248
-28.106422 1581.655 796 4294042833
-26.92477 1581.7596 797 4294042581
-25.73945 1581.8643 798 4294239961
-24.513762 1581.8643 798 4294239961
130.70091 1582.2826 802 4290223812
131.54129 1582.0734 800 4290158019
132.37431 1581.8643 798 4289961156
133.2 1581.655 796 4290487756
134.01834 1581.4459 794 4289963975
135.03302 1581.3413 793 4289898182
136.24954 1581.3413 793 4290294458
137.46605 1581.3413 793 4294044660
138.47339 1581.2367 792 4294242806
139.47707 1581.1321 791 4293848048
140.68991 1581.1321 791 4293782255
141.47339 1580.923 789 4293848048
142.46605 1580.8184 788 4293848048
143.45505 1580.7137 787 4293848048
144.66055 1580.7137 787 4293978862
145.42201 1580.5046 785 4294110705
146.39999 1580.4 784 4293847535
147.60001 1580.4 784 4293847535
148.57248 1580.2954 783 4293781238
149.54129 1580.1908 782 4293649652
150.27522 1579.9817 780 4293517548
151.4679 1579.9817 780 4293649135
152.42569 1579.8771 779 4293649387
153.61652 1579.8771 779 4293583593
154.80734 1579.8771 779 4293387495
155.7578 1579.7725 778 4293519082
156.94679 1579.7725 778 4293255144
158.13577 1579.7725 778 4293255144
159.0789 1579.6678 777 4293517800
160.26605 1579.6678 777 4293583593
161.20367 1579.5634 776 4293517798
161.88625 1579.3541 774 4293583591
-58.170643 1578.4807 777 4294967295
-57.07156 1578.5835 778 4294967295
-55.882568 1578.5835 778 4294967295
-54.609173 1578.4807 777 4294967295
-53.42202 1578.4807 777 4294967295
-52.234863 1578.4807 777 4294967295
-51.047707 1578.4807 777 4294967295
-49.86055 1578.4807 777 4294967295
-48.673393 1578.4807 777 4294967295
-47.559631 1578.5835 778 4294967295
-46.51376 1578.7889 780 4294967295
-45.460552 1578.9945 782 4294967295
-44.332111 1579.0973 783 4294967295
-43.200001 1579.2 784 4294967295
-42.06422 1579.3027 785 4293980400
-40.862385 1579.3027 785 4294240728
-39.660549 1579.3027 785 4294306521
-38.576145 1579.5083 787 4294502356
-37.427525 1579.611 788 4294633685
-36.27523 1579.7137 789 4293976271
-35.066055 1579.7137 789 4293910478
-33.959633 1579.9193 791 4293713353
-32.796329 1580.022 792 4294108111
-31.629358 1580.1248 793 4294108626
-30.458715 1580.2275 794 4294371799
-29.240368 1580.2275 794 4294042579
-28.106422 1580.433 796 4294108372
-26.884403 1580.433 796 4294173906
-25.700918 1580.5358 797 4294239699
-24.513762 1580.6385 798 4294240213
130.50642 1580.9468 801 4290812869
131.54129 1580.844 800 4290747076
132.17615 1580.5358 797 4290486205
133.2 1580.433 796 4291012805
134.01834 1580.2275 794 4290554049
135.03302 1580.1248 793 4290356670
136.04404 1580.022 792 4290425532
137.05138 1579.9193 791 4293978353
138.26422 1579.9193 791 4294045430
139.05504 1579.7137 789 4293847794
140.26422 1579.7137 789 4293782255
141.25871 1579.611 788 4293913842
142.24954 1579.5083 787 4293783026
143.01834 1579.3027 785 4293585390
144.22018 1579.3027 785 4293782253
145.2 1579.2 784 4293913839
146.39999 1579.2 784 4293912558
147.37431 1579.0973 783 4293912558
148.34496 1578.9945 782 4293715182
149.08257 1578.7889 780 4293715182
150.27522 1578.7889 780 4293517800
151.23486 1578.6863 779 4293583593
152.42569 1578.6863 779 4293781742
153.37982 1578.5835 778 4293518313
154.5688 1578.5835 778 4293321704
155.51743 1578.4807 777 4293321704
156.46239 1578.3779 776 4293123556
157.64771 1578.3779 776 4293255142
158.83302 1578.3779 776 4293386212
160.01834 1578.3779 776 4293452005
161.20367 1578.3779 776 4293056734
-58.35046 1577.4954 779 4294967295
-57.07156 1577.3945 778 4294967295
-55.796329 1577.2936 777 4294967295
-54.609173 1577.2936 777 4294967295
-53.339451 1577.1926 776 4294967295
-52.154129 1577.1926 776 4294967295
-51.047707 1577.2936 777 4294967295
-49.783485 1577.1926 776 4294967295
-48.598164 1577.1926 776 4294967295
-47.48624 1577.2936 777 4294967295
-46.442204 1577.4954 779 4294967295
-45.321102 1577.5963 780 4294967295
-44.264221 1577.7982 782 4294967295
-43.133945 1577.899 783 4294967295
-42 1578 784 4293980400
-40.799999 1578 784 4294043350
-39.660549 1578.101 785 4294503900
-38.458717 1578.101 785 4294437848
-37.256882 1578.101 785 4294766557
-36.165138 1578.3027 787 4294239961
-35.066055 1578.5046 789 4294634719
-33.805504 1578.4037 788 4294437844
-32.746788 1578.7064 791 4294898395
-31.533945 1578.7064 791 4294634970
-30.366972 1578.8074 792 4294634970
-29.196331 1578.9082 793 4294569696
-28.022018 1579.0092 794 4294569696
-26.763302 1578.9082 793 4294831580
-25.700918 1579.3119 797 4294897373
-24.513762 1579.4128 798 4294700764
131.54129 1579.6146 800 4291407572
132.17615 1579.3119 797 4291014852
132.8 1579.0092 794 4291541196
133.81651 1578.9082 793 4291082946
134.62569 1578.7064 791 4290030001
135.83853 1578.7064 791 4290359484
136.6367 1578.5046 789 4293846513
137.6367 1578.4037 788 4294045428
138.84404 1578.4037 788 4294176757
140.05138 1578.4037 788 4293914607
141.04404 1578.3027 787 4294046193
141.81651 1578.101 785 4293783021
143.01834 1578.101 785 4293717228
144 1578 784 4293453542
144.97798 1577.899 783 4293585129
146.17615 1577.899 783 4293846763
147.14862 1577.7982 782 4293649641
147.88991 1577.5963 780 4293583591
148.85321 1577.4954 779 4293649641
150.04404 1577.4954 779 4293583591
151.00183 1577.3945 778 4293583591
152.19083 1577.3945 778 4293519084
153.14311 1577.2936 777 4293321704
154.33028 1577.2936 777 4293255142
155.27707 1577.1926 776 4293255142
156.46239 1577.1926 776 4293188836
157.64771 1577.1926 776 4293583593
158.83302 1577.1926 776 4293254881
160.01834 1577.1926 776 4293386210
160.70459 1576.9908 774 4293123042
-58.35046 1576.3046 779 4294967295
-56.983486 1576.1064 777 4294967295
-55.710091 1576.0073 776 4294967295
-54.524769 1576.0073 776 4294967295
-53.339451 1576.0073 776 4294967295
-52.154129 1576.0073 776 4294967295
-50.968807 1576.0073 776 4294967295
-49.629356 1575.8092 774 4294967295
-48.598164 1576.0073 776 4294967295
-47.412846 1576.0073 776 4294967295
-46.370644 1576.2056 778 4294967295
-45.181652 1576.2056 778 4294967295
-44.128441 1576.4037 780 4294967295
-42.93578 1576.4037 780 4294967295
-41.93578 1576.7009 783 4294046191
-40.737614 1576.7009 783 4294108624
-39.599998 1576.8 784 4294437846
-38.400002 1576.8 784 4294436822
-37.200001 1576.8 784 4294568664
-36.055046 1576.899 785 4294042318
-34.959633 1577.0973 787 4294502869
-33.754128 1577.0973 787 4294568664
-32.598164 1577.1963 788 4294963422
-31.438532 1577.2954 789 4294503900
-30.229359 1577.2954 789 4294503900
-29.108257 1577.4935 791 4294634719
-27.937614 1577.5927 792 4294832354
-26.722937 1577.5927 792 4294832350
-25.546789 1577.6918 793 4294832350
-24.366972 1577.7908 794 4294569948
131.14862 1578.1871 798 4290685385
131.97798 1577.989 796 4290489291
132.60001 1577.6918 793 4291344344
133.41284 1577.4935 791 4290952141
134.21835 1577.2954 789 4289899197
135.42752 1577.2954 789 4290425280
136.42935 1577.1963 788 4293978101
137.42752 1577.0973 787 4293716978
138.63303 1577.0973 787 4293914101
139.83853 1577.0973 787 4293585390
140.61469 1576.899 785 4293783026
141.81651 1576.899 785 4293783026
142.8 1576.8 784 4293717232
143.77982 1576.7009 783 4293387495
144.97798 1576.7009 783 4293519082
145.9523 1576.6018 782 4293715434
146.69725 1576.4037 780 4293649641
147.66238 1576.3046 779 4293517800
148.85321 1576.3046 779 4293583593
149.81285 1576.2056 778 4293649638
151.00183 1576.2056 778 4293649638
151.95596 1576.1064 777 4293322475
152.90642 1576.0073 776 4293124839
153.61469 1575.8092 774 4293189349
154.79633 1575.8092 774 4293321191
155.97798 1575.8092 774 4293188065
157.15964 1575.8092 774 4293385701
158.83302 1576.0073 776 4293254883
160.01834 1576.0073 776 4293189090
-56.895412 1574.822 776 4294967295
-55.537613 1574.6276 774 4294967295
-54.355965 1574.6276 774 4294967295
-53.174313 1574.6276 774 4294967295
-51.992661 1574.6276 774 4294967295
-50.968807 1574.822 776 4294967295
-49.629356 1574.6276 774 4294967295
-48.598164 1574.822 776 4294967295
-47.412846 1574.822 776 4294967295
-46.299084 1574.9193 777 4294967295
-45.181652 1575.0165 778 4294967295
-43.992661 1575.0165 778 4294967295
-42.869724 1575.1138 779 4294967295
-41.743118 1575.2111 780 4294177509
-40.675228 1575.4055 782 4294503903
-39.539448 1575.5028 783 4294965225
-38.400002 1575.6 784 4294964705
-37.200001 1575.6 784 4294964705
-36.055046 1575.6973 785 4294307293
-34.959633 1575.8917 787 4294701795
-33.754128 1575.8917 787 4294701025
-32.548622 1575.8917 787 4294766818
-31.343119 1575.8917 787 4294569696
-30.183487 1575.989 788 4294569696
-29.020184 1576.0862 789 4294766307
-27.895412 1576.2808 791 4294963942
-26.68257 1576.2808 791 4294963422
-25.508257 1576.3779 792 4294963422
-24.330275 1576.4752 793 4294702049
129.92294 1576.9614 798 4290882249
130.75597 1576.767 796 4291277006
131.38348 1576.4752 793 4291146711
132.2 1576.2808 791 4291936484
132.80734 1575.989 788 4290886355
133.811 1575.8917 787 4289307580
135.01651 1575.8917 787 4290557896
135.80734 1575.6973 785 4294242303
137.00917 1575.6973 785 4294242806
138.21101 1575.6973 785 4294308599
139.41284 1575.6973 785 4293913842
140.39999 1575.6 784 4293979635
141.60001 1575.6 784 4294044658
142.8 1575.6 784 4293847535
143.55963 1575.4055 782 4293846765
144.75597 1575.4055 782 4293846765
145.50459 1575.2111 780 4293715180
146.47156 1575.1138 779 4293583593
147.66238 1575.1138 779 4293518313
148.62386 1575.0165 778 4293386984
149.81285 1575.0165 778 4293583843
150.53578 1574.822 776 4293912808
151.7211 1574.822 776 4293453289
152.43303 1574.6276 774 4293453289
153.37614 1574.5303 773 4293650152
154.55597 1574.5303 773 4293781738
155.73578 1574.5303 773 4293188836
156.9156 1574.5303 773 4293188836
158.34128 1574.6276 774 4293254883
159.52293 1574.6276 774 4293123296
-55.451378 1573.3505 773 4294967295
-54.271561 1573.3505 773 4294967295
-53.174313 1573.4459 774 4294967295
-51.992661 1573.4459 774 4294967295
-50.811008 1573.4459 774 4294967295
-49.552292 1573.3505 773 4294967295
-48.447708 1573.4459 774 4294967295
-47.266056 1573.4459 774 4294967295
-46.227524 1573.6367 776 4294967295
-45.111927 1573.7321 777 4294967295
-43.992661 1573.8275 778 4294967295
-42.803669 1573.8275 778 4294967295
-41.614677 1573.8275 778 4294571504
-40.550457 1574.0183 780 4294569696
-39.478901 1574.2092 782 4294964711
-38.341286 1574.3046 783 4294834149
-37.086239 1574.2092 782 4294899942
-36 1574.4 784 4294241496
-34.85321 1574.4954 785 4294307289
-33.651375 1574.4954 785 4294438623
-32.449543 1574.4954 785 4294636002
-31.247707 1574.4954 785 4294634970
-30.137615 1574.6863 787 4294766557
-28.976147 1574.7816 788 4294964197
-27.811008 1574.8771 789 4294965225
-26.68257 1575.0679 791 4294964718
-25.469725 1575.0679 791 4294898410
-24.293577 1575.1633 792 4294702308
-23.078899 1575.1633 792 4294702308
129.53395 1575.5449 796 4290882247
130.3633 1575.3541 794 4291408847
131.18532 1575.1633 792 4291540194
132.2 1575.0679 791 4292263661
132.80734 1574.7816 788 4290886607
133.811 1574.6863 787 4289702590
135.01651 1574.6863 787 4290952904
135.80734 1574.4954 785 4294242554
137.00917 1574.4954 785 4294308086
138 1574.4 784 4293978864
139.2 1574.4 784 4293519084
140.39999 1574.4 784 4293913842
141.38348 1574.3046 783 4294044658
142.58165 1574.3046 783 4293978864
143.55963 1574.2092 782 4293978351
144.75597 1574.2092 782 4293912558
145.50459 1574.0183 780 4293649900
146.47156 1573.923 779 4293518313
147.66238 1573.923 779 4293387497
148.62386 1573.8275 778 4293387497
149.58165 1573.7321 777 4293189088
150.53578 1573.6367 776 4293518052
151.25137 1573.4459 774 4293188836
152.19633 1573.3505 773 4293254629
153.13762 1573.255 772 4293517800
154.3156 1573.255 772 4293452007
155.25137 1573.1597 771 4292926179
156.67155 1573.255 772 4293123558
158.09541 1573.3505 773 4293189088
-55.365139 1572.077 772 4294967295
-54.187157 1572.077 772 4294967295
-53.091743 1572.1707 773 4294967295
-51.911926 1572.1707 773 4294967295
-50.65321 1572.077 772 4294967295
-49.475231 1572.077 772 4294967295
-48.297249 1572.077 772 4294967295
-47.192661 1572.1707 773 4294967295
-46.012844 1572.1707 773 4294967295
-45.042202 1572.4514 776 4294967295
-43.92477 1572.5449 777 4294967295
-42.671558 1572.4514 776 4294966269
-41.550457 1572.5449 777 4294966269
-40.488075 1572.7321 779 4294966254
-39.3578 1572.8257 780 4294967025
-38.28257 1573.0128 782 4294964968
-37.086239 1573.0128 782 4294964711
-35.944954 1573.1064 783 4294898658
-34.85321 1573.2936 785 4294898658
-33.651375 1573.2936 785 4294439141
-32.449543 1573.2936 785 4294833899
-31.247707 1573.2936 785 4294964963
-30.137615 1573.4807 787 4294966504
-28.93211 1573.4807 787 4294965741
-27.768806 1573.5743 788 4294967292
-26.601835 1573.6678 789 4294967295
-25.469725 1573.8551 791 4294967289
-24.25688 1573.8551 791 4294439393
-23.078899 1573.9486 792 4294439393
-21.86422 1573.9486 792 4294439139
129.14496 1574.1357 794 4291278540
129.97064 1573.9486 792 4292002262
130.59082 1573.6678 789 4292331757
131.60001 1573.5743 788 4292463343
132.6055 1573.4807 787 4290557646
133.40367 1573.2936 785 4289833924
134.6055 1573.2936 785 4291083727
135.80734 1573.2936 785 4294175742
136.8 1573.2 784 4294307312
138 1573.2 784 4294110189
139.2 1573.2 784 4293781742
140.18532 1573.1064 783 4294110451
141.16698 1573.0128 782 4293978351
141.92661 1572.8257 780 4293846765
143.11926 1572.8257 780 4293715180
144.0899 1572.7321 779 4293846765
145.05688 1572.6385 778 4293715434
146.47156 1572.7321 779 4293583591
147.20734 1572.5449 777 4293519086
148.3945 1572.5449 777 4293453293
149.35046 1572.4514 776 4293386214
150.06972 1572.2642 774 4293649387
151.25137 1572.2642 774 4293451242
151.95964 1572.077 772 4293319656
152.89908 1571.9835 771 4293188836
154.07523 1571.9835 771 4293254629
155.25137 1571.9835 771 4293123556
156.42752 1571.9835 771 4293057762
-55.2789 1570.8074 771 4294967295
-54.102753 1570.8074 771 4294967295
-53.009174 1570.899 772 4294967295
-51.831192 1570.899 772 4294967295
-50.65321 1570.899 772 4294967295
-49.475231 1570.899 772 4294967295
-48.297249 1570.899 772 4294967295
-47.119267 1570.899 772 4294967295
-45.941284 1570.899 772 4294967295
-44.833027 1570.9908 773 4294967295
-43.85688 1571.2661 776 4294967294
-42.539448 1571.0825 774 4294768115
-41.48624 1571.2661 776 4294966265
-40.363304 1571.3578 777 4294967290
-39.236698 1571.4496 778 4294967290
-38.165138 1571.6331 780 4294965227
-36.972477 1571.6331 780 4294964200
-35.779816 1571.6331 780 4294964457
-34.799999 1572 784 4294964457
-33.599998 1572 784 4294569696
-32.400002 1572 784 4294832867
-31.200001 1572 784 4294964709
-30.045872 1572.0918 785 4294967021
-28.844036 1572.0918 785 4294966516
-27.726606 1572.2753 787 4294967295
-26.601835 1572.4587 789 4294967295
-25.469725 1572.6422 791 4294967295
-24.25688 1572.6422 791 4294110953
-23.044037 1572.6422 791 4294110953
-21.831192 1572.6422 791 4294241507
127.92661 1572.9175 794 4291278038
128.75597 1572.7339 792 4291147213
129.77431 1572.6422 791 4292134364
130.39265 1572.3669 788 4292135153
131.60001 1572.3669 788 4291411686
132.20183 1572.0918 785 4290161842
133.40367 1572.0918 785 4290556600
134.39999 1572 784 4292398292
135.60001 1572 784 4294437619
136.8 1572 784 4294044142
137.78899 1571.9082 783 4294044142
138.98715 1571.9082 783 4293978349
139.97064 1571.8165 782 4293912556
140.73395 1571.6331 780 4293846765
141.92661 1571.6331 780 4293649387
142.89908 1571.5413 779 4293649387
143.86789 1571.4496 778 4293715180
145.05688 1571.4496 778 4293650154
145.79449 1571.2661 776 4293518311
146.52477 1571.0825 774 4293518313
148.16513 1571.2661 776 4293518313
148.42569 1570.899 772 4293386214
149.60367 1570.899 772 4293517800
150.54678 1570.8074 771 4293648103
151.72293 1570.8074 771 4293582310
152.66055 1570.7156 770 4292596696
153.83487 1570.7156 770 4293123296
155.00917 1570.7156 770 4293189349
156.18349 1570.7156 770 4293057762
-54.102753 1569.6312 771 4294967295
-52.844036 1569.5413 770 4294967295
-51.669724 1569.5413 770 4294967295
-50.57431 1569.6312 771 4294967295
-49.398167 1569.6312 771 4294967295
-48.222019 1569.6312 771 4294967295
-47.045872 1569.6312 771 4294967295
-45.941284 1569.7211 772 4294967295
-44.763302 1569.7211 772 4294967295
-43.7211 1569.9009 774 4294967295
-42.473396 1569.811 773 4294835193
-41.3578 1569.9009 774 4294966780
-40.300919 1570.0807 776 4294967293
-39.176147 1570.1707 777 4294967295
-38.047707 1570.2605 778 4294967287
-36.915596 1570.3505 779 4294965229
-35.72477 1570.3505 779 4294965488
-34.693577 1570.6202 782 4294965745
-33.548622 1570.7101 783 4294965229
-32.35046 1570.7101 783 4294965742
-31.152294 1570.7101 783 4294965742
-30 1570.8 784 4294967295
-28.799999 1570.8 784 4294967295
-27.642202 1570.8899 785 4294967295
-26.440367 1570.8899 785 4294967295
-25.39266 1571.2495 789 4294967295
-24.25688 1571.4293 791 4294966526
-23.044037 1571.4293 791 4294505460
-21.86422 1571.5193 792 4294372844
-20.649542 1571.5193 792 4294833395
127.73395 1571.6091 793 4291475666
128.56146 1571.4293 791 4291212495
129.38165 1571.2495 789 4292528355
130.39265 1571.1597 788 4292202222
131.39999 1571.0697 787 4290162639
132.20183 1570.8899 785 4288980645
133.2 1570.8 784 4290822849
134.39999 1570.8 784 4292334555
135.60001 1570.8 784 4294242552
136.59082 1570.7101 783 4294175983
137.57799 1570.6202 782 4293978603
138.34862 1570.4404 780 4293912556
139.54129 1570.4404 780 4293912556
140.73395 1570.4404 780 4293846763
141.70825 1570.3505 779 4293452005
142.89908 1570.3505 779 4293583593
144.0899 1570.3505 779 4293715180
145.05688 1570.2605 778 4293583845
145.79449 1570.0807 776 4293518052
146.97981 1570.0807 776 4293517798
147.70642 1569.9009 774 4293583591
148.42569 1569.7211 772 4293386214
149.37064 1569.6312 771 4293386214
150.31192 1569.5413 770 4293386212
151.48624 1569.5413 770 4293517798
152.66055 1569.5413 770 4293255135
153.35413 1569.3615 768 4293452257
154.52477 1569.3615 768 4293123556
155.69542 1569.3615 768 4293057762
-54.102753 1568.4551 771 4294967295
-52.926605 1568.4551 771 4294967295
-51.669724 1568.3669 770 4294967295
-50.57431 1568.4551 771 4294967295
-49.398167 1568.4551 771 4294967295
-48.222019 1568.4551 771 4294967295
-47.045872 1568.4551 771 4294967295
-45.869724 1568.4551 771 4294967295
-44.763302 1568.5431 772 4294967295
-43.58532 1568.5431 772 4294967295
-42.473396 1568.6312 773 4294835193
-41.293579 1568.6312 773 4294900987
-40.176147 1568.7192 774 4294967293
-39.115597 1568.8954 776 4294967295
-37.930275 1568.8954 776 4294967295
-36.801834 1568.9835 777 4294967033
-35.614677 1568.9835 777 4294966258
-34.267891 1568.7192 774 4294965486
-33.394497 1569.2477 780 4294965222
-32.201836 1569.2477 780 4294965993
-31.104588 1569.4238 782 4294965487
-29.954128 1569.512 783 4294967295
-28.755962 1569.512 783 4294967295
-27.6 1569.6 784 4294967295
-26.4 1569.6 784 4294967295
-25.161469 1569.512 783 4294967295
-24.183487 1570.0404 789 4294967295
-23.044037 1570.2166 791 4294637814
-21.831192 1570.2166 791 4294569192
-20.618349 1570.2166 791 4294766570
126.51743 1570.3927 793 4291607266
127.54128 1570.3046 792 4291344094
128.56146 1570.2166 791 4290686916
129.18532 1569.9523 788 4292594913
130.19449 1569.8643 787 4292596726
131 1569.6881 785 4288912574
132.20183 1569.6881 785 4288057987
133.2 1569.6 784 4292202946
134.39999 1569.6 784 4292533735
135.39265 1569.512 783 4293652217
136.38165 1569.4238 782 4294044909
137.15596 1569.2477 780 4293781738
138.13577 1569.1597 779 4293649387
139.11192 1569.0715 778 4293649387
140.30092 1569.0715 778 4293715434
141.48991 1569.0715 778 4293583591
142.23853 1568.8954 776 4293517800
143.42386 1568.8954 776 4293386214
144.16147 1568.7192 774 4293123294
145.34312 1568.7192 774 4293254881
146.29724 1568.6312 773 4293386214
147.01834 1568.4551 771 4293386214
148.19449 1568.4551 771 4293386214
149.13762 1568.3669 770 4293254629
150.31192 1568.3669 770 4293123556
151.48624 1568.3669 770 4293123556
152.18349 1568.1908 768 4293058785
153.35413 1568.1908 768 4293058785
154.52477 1568.1908 768 4292597982
155.69542 1568.1908 768 4292795104
-52.844036 1567.1926 770 4294967295
-51.669724 1567.1926 770 4294967295
-50.495415 1567.1926 770 4294967295
-49.321102 1567.1926 770 4294967295
-48.14679 1567.1926 770 4294967295
-47.045872 1567.2789 771 4294967295
-45.869724 1567.2789 771 4294967295
-44.693577 1567.2789 771 4294967295
-43.517429 1567.2789 771 4294967295
-42.407341 1567.3651 772 4294900987
-41.293579 1567.4514 773 4294703607
-40.113762 1567.4514 773 4294967286
-38.933945 1567.4514 773 4294967295
-37.812843 1567.5376 774 4294967295
-36.744953 1567.7101 776 4294967288
-35.559631 1567.7101 776 4294967025
-34.267891 1567.5376 774 4294967284
-33.343121 1567.9688 779 4294965738
-32.201836 1568.0551 780 4294967280
-31.104588 1568.2275 782 4294967291
-29.908257 1568.2275 782 4294967295
-28.711927 1568.2275 782 4294967295
-27.557798 1568.3137 783 4294967295
-26.359632 1568.3137 783 4294967295
-25.122936 1568.2275 782 4294967295
-24.14679 1568.745 788 4294967295
-22.939449 1568.745 788 4294703605
-21.765137 1568.8312 789 4294438891
-20.618349 1569.0037 791 4294636013
-19.405504 1569.0037 791 4294241255
126.32661 1569.09 792 4293779955
127.34863 1569.0037 791 4291542993
127.97798 1568.745 788 4290686414
128.989 1568.6587 787 4292791790
129.79817 1568.4862 785 4292202735
130.8 1568.4 784 4288320948
132 1568.4 784 4287337372
132.99634 1568.3137 783 4292271590
133.989 1568.2275 782 4293519597
134.77065 1568.0551 780 4293783026
135.75414 1567.9688 779 4293978601
136.73395 1567.8826 778 4293649636
137.92294 1567.8826 778 4293452007
139.11192 1567.8826 778 4293386214
140.0844 1567.7964 777 4293452007
141.27156 1567.7964 777 4293649387
142.23853 1567.7101 776 4293517798
143.42386 1567.7101 776 4293254883
144.16147 1567.5376 774 4293254881
145.34312 1567.5376 774 4293518052
145.84221 1567.2789 771 4293189349
147.01834 1567.2789 771 4293189349
147.9633 1567.1926 770 4293189603
148.67155 1567.0201 768 4293189603
149.84221 1567.0201 768 4293057762
151.01285 1567.0201 768 4293057762
151.94496 1566.934 767 4293123554
153.11375 1566.934 767 4293123554
154.28256 1566.934 767 4293123556
155.69542 1567.0201 768 4293518313
-51.508255 1565.8495 768 4294967295
-50.337616 1565.8495 768 4294967295
-49.166973 1565.8495 768 4294967295
-47.99633 1565.8495 768 4294967295
-46.825687 1565.8495 768 4294967295
-45.798164 1566.0183 770 4294967295
-44.484406 1565.8495 768 4294967295
-43.313763 1565.8495 768 4294967295
-42.341286 1566.1028 771 4294243824
-41.229359 1566.1871 772 4294375154
-40.051376 1566.1871 772 4294965996
-38.873394 1566.1871 772 4294967295
-37.812843 1566.356 774 4294967295
-36.744953 1566.5248 776 4294967289
-35.559631 1566.5248 776 4294967025
-34.374313 1566.5248 776 4294967282
-33.240368 1566.6091 777 4294966253
-32.102753 1566.6936 778 4294967282
-31.009174 1566.8624 780 4294967294
-29.816513 1566.8624 780 4294967295
-28.623854 1566.8624 780 4294967295
-27.515596 1567.0312 782 4294967295
-26.319265 1567.0312 782 4294967295
-25.122936 1567.0312 782 4294967295
-23.963303 1567.1156 783 4294967295
-22.904587 1567.4532 787 4294967293
-21.732111 1567.5376 788 4294637038
-20.524771 1567.5376 788 4294505195
-19.31743 1567.5376 788 4294240994
125.11192 1567.8752 792 4294635519
126.13578 1567.7908 791 4294833151
126.9633 1567.6221 789 4291346130
127.97798 1567.5376 788 4290686414
128.59633 1567.2844 785 4292199653
129.60001 1567.2 784 4291676380
130.60001 1567.1156 783 4288452523
131.79817 1567.1156 783 4288321187
132.38531 1566.8624 780 4293124076
133.57799 1566.8624 780 4293715693
134.35596 1566.6936 778 4293715693
135.54495 1566.6936 778 4293254881
136.52293 1566.6091 777 4293386210
137.7101 1566.6091 777 4293451746
138.68257 1566.5248 776 4293385697
139.43486 1566.356 774 4293123296
141.05321 1566.5248 776 4293386212
141.79817 1566.356 774 4293321189
142.7578 1566.2716 773 4293255396
144.16147 1566.356 774 4293386210
144.89174 1566.1871 772 4293386210
145.84221 1566.1028 771 4293255142
146.78899 1566.0183 770 4293189349
147.9633 1566.0183 770 4293058533
148.67155 1565.8495 768 4293058533
149.60735 1565.7651 767 4292465628
150.77615 1565.7651 767 4293057764
151.70642 1565.6808 766 4293189088
153.11375 1565.7651 767 4293189088
154.28256 1565.7651 767 4293123556
155.45137 1565.7651 767 4293123556
-51.427525 1564.5963 767 4294967295
-49.089909 1564.5963 767 4294967295
-47.921101 1564.5963 767 4294967295
-46.752293 1564.5963 767 4294967294
-45.583485 1564.5963 767 4294967295
-44.41468 1564.5963 767 4294967295
-43.313763 1564.679 768 4294967295
-42.14312 1564.679 768 4294966519
-41.165138 1564.9266 771 4294637297
-40.051376 1565.0092 772 4294965996
-38.873394 1565.0092 772 4294967295
-37.754128 1565.0918 773 4294967295
-36.631191 1565.1743 774 4294967292
-35.559631 1565.3395 776 4294967288
-34.267891 1565.1743 774 4294967290
-33.188992 1565.3395 776 4294967292
-32.00367 1565.3395 776 4294967294
-30.866055 1565.422 777 4294967290
-29.770641 1565.5872 779 4294967295
-28.623854 1565.6697 780 4294967295
-27.431192 1565.6697 780 4294967295
-26.238533 1565.6697 780 4294967295
-25.122936 1565.8348 782 4294967295
-23.926605 1565.8348 782 4294967295
-22.730276 1565.8348 782 4294967295
-21.633028 1566.0825 785 4294571242
-20.493578 1566.2477 787 4294505449
-19.288073 1566.2477 787 4294767854
125.75413 1566.4128 789 4294110453
126.77065 1566.3303 788 4290491838
127.78349 1566.2477 787 4290753238
128.39999 1566 784 4292069098
129.40184 1565.9175 783 4291216579
130.39999 1565.8348 782 4287992722
131.19266 1565.6697 780 4289308080
131.97798 1565.5046 778 4293847796
133.16698 1565.5046 778 4293979116
134.14862 1565.422 777 4293650152
135.1266 1565.3395 776 4293649638
136.31192 1565.3395 776 4293846761
137.49725 1565.3395 776 4293649890
138.2532 1565.1743 774 4293649890
139.43486 1565.1743 774 4293321189
140.61652 1565.1743 774 4293321189
141.57799 1565.0918 773 4293518052
142.53578 1565.0092 772 4293386210
143.48991 1564.9266 771 4293254883
144.66606 1564.9266 771 4293386212
145.61469 1564.844 770 4293386730
146.33028 1564.679 768 4293649902
147.50092 1564.679 768 4293255396
148.43854 1564.5963 767 4293189603
149.60735 1564.5963 767 4293123556
150.53944 1564.5138 766 4293057762
151.70642 1564.5138 766 4293123294
152.8734 1564.5138 766 4293254881
154.28256 1564.5963 767 4293189090
-49.089909 1563.4275 767 4294967295
-47.921101 1563.4275 767 4294967295
-46.752293 1563.4275 767 4294967292
-45.583485 1563.4275 767 4294967294
-44.41468 1563.4275 767 4294967295
-43.245872 1563.4275 767 4294967295
-42.14312 1563.5083 768 4294967295
-41.100918 1563.6697 770 4294703092
-39.988991 1563.7505 771 4294306267
-38.812843 1563.7505 771 4294967287
-37.695412 1563.8312 772 4294967295
-36.57431 1563.9119 773 4294967293
-35.449543 1563.9927 774 4294967290
-34.267891 1563.9927 774 4294967289
-33.188992 1564.1542 776 4294967290
-32.00367 1564.1542 776 4294967288
-30.818348 1564.1542 776 4294966505
-29.6789 1564.2349 777 4294967294
-28.53578 1564.3156 778 4294967295
-27.38899 1564.3964 779 4294967295
-26.238533 1564.4771 780 4294967295
-25.045872 1564.4771 780 4294967295
-23.926605 1564.6385 782 4294967295
-22.730276 1564.6385 782 4294967295
-21.6 1564.8 784 4294571504
-20.431192 1564.8807 785 4294374381
-19.288073 1565.0422 787 4294637038
-18.137615 1565.2036 789 4294571244
125.5633 1565.1229 788 4290891486
126.57798 1565.0422 787 4289378504
127.39449 1564.8807 785 4290623969
128.20367 1564.7192 783 4290558176
129.20367 1564.6385 782 4289703337
129.8 1564.3964 779 4289242786
130.78899 1564.3156 778 4290294977
131.77431 1564.2349 777 4293781749
132.96147 1564.2349 777 4293715432
133.94128 1564.1542 776 4293452259
134.70825 1563.9927 774 4293452259
135.88991 1563.9927 774 4293452259
137.07156 1563.9927 774 4293452259
138.03853 1563.9119 773 4293452259
139.00183 1563.8312 772 4293321189
140.17981 1563.8312 772 4293386982
141.13762 1563.7505 771 4293387236
142.31377 1563.7505 771 4293321187
143.26605 1563.6697 770 4293123296
144.44037 1563.6697 770 4293254883
145.15964 1563.5083 768 4293451494
146.10092 1563.4275 767 4293451494
147.26973 1563.4275 767 4292991454
148.20551 1563.3468 766 4293254883
149.37248 1563.3468 766 4293386212
150.30275 1563.2661 765 4293254883
151.4679 1563.2661 765 4293319652
152.8734 1563.3468 766 4293451494
-47.921101 1562.2587 767 4294967295
-46.678898 1562.1798 766 4294967295
-45.583485 1562.2587 767 4294967295
-44.344955 1562.1798 766 4294967295
-43.245872 1562.2587 767 4294967295
-42.077065 1562.2587 767 4294967295
-40.972477 1562.3376 768 4294835445
-39.801834 1562.3376 768 4294373361
-38.752293 1562.4954 770 4294967295
-37.636696 1562.5743 771 4294967295
-36.517429 1562.6532 772 4294967295
-35.394497 1562.7321 773 4294967295
-34.21468 1562.7321 773 4294967295
-33.086239 1562.811 774 4294967295
-31.904587 1562.811 774 4294967295
-30.722937 1562.811 774 4294967288
-29.633028 1562.9688 776 4294967292
-28.491743 1563.0477 777 4294967295
-27.346788 1563.1266 778 4294967295
-26.198166 1563.2056 779 4294967295
-25.045872 1563.2844 780 4294967295
-23.85321 1563.2844 780 4294967295
-22.730276 1563.4423 782 4294967295
-21.6 1563.6 784 4294966780
-20.431192 1563.679 785 4294966267
-19.31743 1563.9156 788 4294965744
123.33578 1563.9945 789 4290888170
124.35596 1563.9156 788 4289112015
125.37247 1563.8367 787 4288980664
126.19266 1563.679 785 4290033095
127.0055 1563.5211 783 4291018725
128.00734 1563.4423 782 4290031830
128.80734 1563.2844 780 4288981651
129.60001 1563.1266 778 4289836704
130.78899 1563.1266 778 4290755539
131.57065 1562.9688 776 4293913599
132.75597 1562.9688 776 4293780454
133.52661 1562.811 774 4293648868
134.70825 1562.811 774 4293188836
135.67889 1562.7321 773 4293057249
136.85872 1562.7321 773 4293123042
137.82385 1562.6532 772 4293452007
138.78532 1562.5743 771 4293255396
139.96147 1562.5743 771 4293321189
140.91743 1562.4954 770 4293387236
142.09174 1562.4954 770 4293584358
142.81834 1562.3376 768 4293452259
143.989 1562.3376 768 4293518052
144.93211 1562.2587 767 4293452259
145.87157 1562.1798 766 4293254881
147.03853 1562.1798 766 4293189090
147.97247 1562.101 765 4293517798
149.13762 1562.101 765 4293386210
150.30275 1562.101 765 4293452259
151.4679 1562.101 765 4293254631
-47.845871 1561.0128 766 4294967295
-46.678898 1561.0128 766 4294967295
-45.511925 1561.0128 766 4294967295
-44.344955 1561.0128 766 4294967295
-43.177982 1561.0128 766 4294967295
-42.011009 1561.0128 766 4294967295
-40.908257 1561.09 767 4294967295
-39.739449 1561.09 767 4294242543
-38.570641 1561.09 767 4294966009
-37.460552 1561.167 768 4294967295
-36.403671 1561.321 770 4294967295
-35.284405 1561.3982 771 4294967289
-34.161469 1561.4752 772 4294967295
-33.034863 1561.5522 773 4294967295
-31.855045 1561.5522 773 4294967295
-30.67523 1561.5522 773 4294967295
-29.633028 1561.7834 776 4294967295
-28.447706 1561.7834 776 4294967295
-27.304586 1561.8606 777 4294967295
-26.157799 1561.9376 778 4294967295
-25.045872 1562.0918 780 4294967295
-23.85321 1562.0918 780 4294967295
-22.730276 1562.2458 782 4294967295
-21.533945 1562.2458 782 4294967295
-20.4 1562.4 784 4294967294
-19.288073 1562.6312 787 4294966263
124.16697 1562.6312 787 4288386237
124.99083 1562.4771 785 4287992498
126 1562.4 784 4290821597
126.81101 1562.2458 782 4291349486
127.61468 1562.0918 780 4288980938
128.60918 1562.0146 779 4287730040
129.39999 1561.8606 777 4291282605
130.58716 1561.8606 777 4292071901
131.57065 1561.7834 776 4293256175
132.34496 1561.6294 774 4293582562
133.31926 1561.5522 773 4293648355
134.49908 1561.5522 773 4293582562
135.4679 1561.4752 772 4293319390
136.64587 1561.4752 772 4293057249
137.60918 1561.3982 771 4293254629
138.78532 1561.3982 771 4293123556
139.74312 1561.321 770 4293255142
140.47707 1561.167 768 4293452005
141.64771 1561.167 768 4293517798
142.5945 1561.09 767 4293452005
143.53761 1561.0128 766 4293517798
144.70459 1561.0128 766 4293255142
145.6422 1560.9358 765 4293123556
146.80734 1560.9358 765 4293189090
147.73946 1560.8588 764 4293254883
148.90276 1560.8588 764 4293057249
149.59267 1560.7046 762 4293188836
151.22935 1560.8588 764 4293254629
-47.845871 1559.8458 766 4294967295
-46.605503 1559.7706 765 4294967295
-45.511925 1559.8458 766 4294967295
-44.27523 1559.7706 765 4294967295
-43.177982 1559.8458 766 4294967295
-42.011009 1559.8458 766 4294967295
-40.844036 1559.8458 766 4294967295
-39.677063 1559.8458 766 4294636788
-38.51009 1559.8458 766 4294176237
-37.401836 1559.9211 767 4294899190
-36.289909 1559.9963 768 4294967295
-35.229359 1560.1467 770 4294967295
-34.108257 1560.222 771 4294967295
-32.983486 1560.2972 772 4294967295
-31.805504 1560.2972 772 4294967295
-30.627523 1560.2972 772 4294967295
-29.541285 1560.4478 774 4294967295
-28.359632 1560.4478 774 4294967295
-27.262384 1560.5981 776 4294967295
-26.117432 1560.6733 777 4294967295
-25.045872 1560.899 780 4294967295
-23.85321 1560.899 780 4294967295
-22.730276 1561.0496 782 4294967295
-21.533945 1561.0496 782 4294967295
-20.337614 1561.0496 782 4294967295
-19.200001 1561.2 784 4294967295
123.78899 1561.2753 785 4287927483
124.8 1561.2 784 4288453827
125.61468 1561.0496 782 4290954217
126.42202 1560.899 780 4291151832
127.41835 1560.8239 779 4288520113
128.21284 1560.6733 777 4288124303
129.2 1560.5981 776 4292137933
130.38531 1560.5981 776 4293321191
131.1633 1560.4478 774 4293518313
132.34496 1560.4478 774 4293056736
133.11192 1560.2972 772 4292859101
134.2899 1560.2972 772 4293057249
135.25688 1560.222 771 4293254629
136.43303 1560.222 771 4293123556
137.60918 1560.222 771 4293386984
138.5688 1560.1467 770 4293518313
139.30643 1559.9963 768 4293649900
140.25688 1559.9211 767 4293255142
141.42569 1559.9211 767 4293255142
142.37064 1559.8458 766 4293452259
143.31192 1559.7706 765 4293649638
144.24954 1559.6954 764 4293123042
145.41284 1559.6954 764 4293057249
146.57614 1559.6954 764 4293057762
147.27339 1559.5449 762 4293123556
148.19817 1559.4697 761 4293057249
149.35596 1559.4697 761 4293123042
150.51376 1559.4697 761 4293123042
-46.605503 1558.6055 765 4294967287
-45.440369 1558.6055 765 4294967282
-44.27523 1558.6055 765 4294967030
-43.110092 1558.6055 765 4294967290
-41.944954 1558.6055 765 4294967289
-40.779816 1558.6055 765 4294967290
-39.677063 1558.679 766 4294833649
-38.51009 1558.679 766 4293978340
-37.343121 1558.679 766 4294437344
-36.233028 1558.7523 767 4294967295
-35.06422 1558.7523 767 4294967295
-33.895412 1558.7523 767 4294967295
-32.880733 1558.9725 770 4294967295
-31.706423 1558.9725 770 4294967295
-30.53211 1558.9725 770 4294967295
-29.449541 1559.1193 772 4294967295
-28.315596 1559.1926 773 4294967294
-27.177982 1559.2661 774 4294967295
-25.99633 1559.2661 774 4294967295
-25.007339 1559.6331 779 4294967295
-23.85321 1559.7064 780 4294967295
-22.660551 1559.7064 780 4294967295
-21.434862 1559.6331 779 4294967295
-20.212845 1559.5596 778 4294967295
-19.170643 1559.9266 783 4294967295
123.6 1560 784 4288322759
124.41835 1559.8533 782 4289045718
124.84404 1559.5596 778 4290427371
126.03303 1559.5596 778 4290557883
127.22202 1559.5596 778 4288912801
128.21284 1559.4862 777 4288450708
129.2 1559.4128 776 4293122011
129.98166 1559.2661 774 4293583341
131.1633 1559.2661 774 4293122790
132.13945 1559.1926 773 4292991708
133.11192 1559.1193 772 4293057501
134.08073 1559.0459 771 4292860638
135.04587 1558.9725 770 4292926431
136.22018 1558.9725 770 4292664288
137.3945 1558.9725 770 4293124839
138.13577 1558.8257 768 4293321189
139.08807 1558.7523 767 4293321189
140.0367 1558.679 766 4293057762
141.20367 1558.679 766 4293255142
142.14679 1558.6055 765 4293387236
142.63486 1558.3854 762 4293255394
143.79449 1558.3854 762 4292728539
144.95413 1558.3854 762 4293123296
145.88257 1558.3119 761 4293123294
146.80734 1558.2385 760 4293123294
147.9633 1558.2385 760 4293056988
148.88257 1558.1652 759 4293385697
150.0367 1558.1652 759 4293057249
-45.440369 1557.4404 765 4294965988
-44.27523 1557.4404 765 4294966003
-43.110092 1557.4404 765 4294967293
-41.944954 1557.4404 765 4294967287
-40.715595 1557.3688 764 4294967284
-39.552292 1557.3688 764 4294701806
-38.388992 1557.3688 764 4293649118
-37.225689 1557.3688 764 4293780704
-36.176147 1557.512 766 4294966520
-35.06422 1557.5835 767 4294967295
-33.895412 1557.5835 767 4294967295
-32.777981 1557.655 768 4294967295
-31.60734 1557.655 768 4294967295
-30.436697 1557.655 768 4294967295
-29.403669 1557.8698 771 4294967295
-28.227524 1557.8698 771 4294967295
-27.093578 1557.9413 772 4294967295
-25.955963 1558.0128 773 4294967295
-24.968807 1558.3706 778 4294967295
-23.779816 1558.3706 778 4294967295
-22.625689 1558.4423 779 4294967295
-21.368807 1558.2991 777 4294967295
-20.181652 1558.2991 777 4294967295
-18.994495 1558.2991 777 4294967295
-17.807339 1558.2991 777 4294967295
-16.620184 1558.2991 777 4294637301
-15.337615 1558.0128 773 4294176750
121.71009 1558.0844 774 4290690024
123.27339 1558.2275 776 4290822377
124.45872 1558.2275 776 4289901275
125.64404 1558.2275 776 4288454551
126.82936 1558.2275 776 4288323222
128.01468 1558.2275 776 4289175991
128.8 1558.0844 774 4292926192
129.98166 1558.0844 774 4293451753
130.95964 1558.0128 773 4293057251
131.72844 1557.8698 771 4292991708
132.90459 1557.8698 771 4293057501
133.87157 1557.7982 770 4293057247
135.04587 1557.7982 770 4293517798
135.79449 1557.655 768 4293321187
136.96513 1557.655 768 4293321187
137.91927 1557.5835 767 4293321187
138.86972 1557.512 766 4293321187
139.81651 1557.4404 765 4293386210
140.98166 1557.4404 765 4293649638
141.92294 1557.3688 764 4293387236
142.63486 1557.2257 762 4293189601
143.56697 1557.1542 761 4292926433
144.49541 1557.0825 760 4293255142
145.42018 1557.011 759 4293123808
146.57431 1557.011 759 4293058014
147.72844 1557.011 759 4293189085
148.64587 1556.9395 758 4293583843
149.55963 1556.8679 757 4293188067
-45.440369 1556.2753 765 4294966250
-44.27523 1556.2753 765 4294965744
-43.110092 1556.2753 765 4294967290
-41.878899 1556.2056 764 4294967291
-40.715595 1556.2056 764 4294967292
-39.552292 1556.2056 764 4294967288
-38.388992 1556.2056 764 4294373350
-37.225689 1556.2056 764 4294175212
-36.062386 1556.2056 764 4294372848
-35.009174 1556.345 766 4294966768
-33.842201 1556.345 766 4294967295
-32.726604 1556.4147 767 4294967295
-31.557798 1556.4147 767 4294967295
-30.38899 1556.4147 767 4294967295
-29.357798 1556.6239 770 4294967295
-28.183487 1556.6239 770 4294967295
-27.051376 1556.6936 771 4294967295
-25.915596 1556.7633 772 4294967295
-24.737616 1556.7633 772 4294967295
-23.559633 1556.7633 772 4294967295
-22.555964 1557.1119 777 4294967295
-21.335779 1557.0422 776 4294967295
-20.150459 1557.0422 776 4294967295
-18.965137 1557.0422 776 4294967295
-17.724771 1556.9027 774 4294967295
-16.517431 1556.833 773 4294967295
-15.337615 1556.833 773 4294571252
-14.135779 1556.7633 772 4294307301
119.26605 1557.321 780 4288190659
120.45872 1557.321 780 4288124866
120.52844 1556.9027 774 4288257483
121.71009 1556.9027 774 4290428653
122.89175 1556.9027 774 4291611631
124.07339 1556.9027 774 4288321981
125.25504 1556.9027 774 4287858278
126.4367 1556.9027 774 4290424205
127.61835 1556.9027 774 4290952902
128.60001 1556.833 773 4292860899
