# .PCD v0.7 - Point Cloud Data file format
VERSION 0.7
FIELDS x y z rgb
SIZE 4 4 4 4
TYPE F F F U
COUNT 1 1 1 1
WIDTH 1360
HEIGHT 1
VIEWPOINT 0 0 0 1 0 0 0
POINTS 1360
DATA ascii
140.0367 1559.8458 766 4293977838
141.20367 1559.8458 766 4294240754
142.14679 1559.7706 765 4294110191
143.08624 1559.6954 764 4294110191
144.24954 1559.6954 764 4294110705
145.41284 1559.6954 764 4294702842
146.80734 1559.7706 765 4294373627
147.97247 1559.7706 765 4289636531
149.13762 1559.7706 765 4283384981
150.06606 1559.6954 764 4282069121
-55.662384 1558.3854 762 4294043365
-54.50275 1558.3854 762 4294967295
-53.343121 1558.3854 762 4294967295
-52.183487 1558.3854 762 4294967295
-50.943119 1558.3119 761 4294967295
-49.78532 1558.3119 761 4294967295
-48.627522 1558.3119 761 4294967295
-47.544952 1558.3854 762 4294967295
-46.532108 1558.5321 764 4294967295
-45.511925 1558.679 766 4294440951
-44.344955 1558.679 766 4294636015
-43.177982 1558.679 766 4294967036
-42.077065 1558.7523 767 4294967295
-40.908257 1558.7523 767 4294967295
-39.801834 1558.8257 768 4294966772
-38.631191 1558.8257 768 4294967295
-37.460552 1558.8257 768 4294967295
-36.403671 1558.9725 770 4294967295
-35.284405 1559.0459 771 4294967033
-34.108257 1559.0459 771 4294967295
-32.983486 1559.1193 772 4294967295
-31.805504 1559.1193 772 4294967295
-30.627523 1559.1193 772 4294967295
-29.495413 1559.1926 773 4294967295
-28.447706 1559.4128 776 4294967295
-27.304586 1559.4862 777 4294967295
-26.117432 1559.4862 777 4294967295
-25.045872 1559.7064 780 4294967295
-23.85321 1559.7064 780 4294768369
117.71009 1559.5596 778 4293126138
118.89909 1559.5596 778 4293782783
120.08807 1559.5596 778 4293322232
121.27706 1559.5596 778 4292465378
122.27706 1559.4862 777 4289044142
123.46422 1559.4862 777 4289238171
124.45872 1559.4128 776 4293514972
125.64404 1559.4128 776 4293583857
126.82936 1559.4128 776 4294110201
127.61835 1559.2661 774 4293846763
128.8 1559.2661 774 4293912556
129.77982 1559.1926 773 4293846765
130.75597 1559.1193 772 4294109938
131.72844 1559.0459 771 4294373109
132.69725 1558.9725 770 4294175731
133.24403 1558.7523 767 4293977840
134.41284 1558.7523 767 4294372342
135.3688 1558.679 766 4294109938
136.53578 1558.679 766 4294044144
137.70276 1558.679 766 4294176244
138.86972 1558.679 766 4294242293
140.0367 1558.679 766 4294438389
140.98166 1558.6055 765 4294438389
141.92294 1558.5321 764 4294372596
142.63486 1558.3854 762 4294372596
143.79449 1558.3854 762 4294372855
144.95413 1558.3854 762 4294899455
146.57614 1558.5321 764 4294966015
147.73946 1558.5321 764 4290820289
148.43303 1558.3854 762 4287200925
149.59267 1558.3854 762 4282726744
-54.244038 1557.011 759 4294967039
-52.018349 1557.0825 760 4294967034
-50.862385 1557.0825 760 4294966775
-49.706421 1557.0825 760 4294967292
-48.550457 1557.0825 760 4294967289
-47.469727 1557.1542 761 4294967295
-46.385323 1557.2257 762 4294967295
-45.440369 1557.4404 765 4294243054
-44.27523 1557.4404 765 4293715432
-43.110092 1557.4404 765 4293846761
-41.944954 1557.4404 765 4294966007
-40.844036 1557.512 766 4294967295
-39.739449 1557.5835 767 4294967294
-38.570641 1557.5835 767 4294967295
-37.460552 1557.655 768 4294967295
-36.289909 1557.655 768 4294967295
-35.119267 1557.655 768 4294967295
-33.948624 1557.655 768 4294967295
-32.93211 1557.8698 771 4294967292
-31.755962 1557.8698 771 4294967295
-30.579817 1557.8698 771 4294967295
-29.449541 1557.9413 772 4294967295
-28.315596 1558.0128 773 4294967295
-27.177982 1558.0844 774 4294967295
-26.077065 1558.2275 776 4294967295
-24.891743 1558.2275 776 4294967295
-23.706423 1558.2275 776 4294966005
115.15413 1558.2991 777 4291415781
116.34129 1558.2991 777 4291678440
117.52844 1558.2991 777 4292336370
118.7156 1558.2991 777 4292795890
119.90276 1558.2991 777 4292269545
121.0899 1558.2991 777 4291874506
122.08807 1558.2275 776 4288321684
123.27339 1558.2275 776 4289372593
124.07339 1558.0844 774 4294175483
125.25504 1558.0844 774 4294307316
126.4367 1558.0844 774 4294373109
127.61835 1558.0844 774 4294044655
128.60001 1558.0128 773 4294110705
129.37614 1557.8698 771 4294307316
130.55229 1557.8698 771 4294965759
131.52293 1557.7982 770 4294636282
132.07523 1557.5835 767 4294504695
133.03487 1557.512 766 4294570488
134.20183 1557.512 766 4294899453
135.3688 1557.512 766 4294702840
136.53578 1557.512 766 4294702840
137.70276 1557.512 766 4294702840
138.65138 1557.4404 765 4294966011
139.81651 1557.4404 765 4294965759
140.98166 1557.4404 765 4294966271
141.92294 1557.3688 764 4294899453
142.63486 1557.2257 762 4294899453
143.79449 1557.2257 762 4294965247
144.72478 1557.1542 761 4294967039
145.88257 1557.1542 761 4294965503
147.27339 1557.2257 762 4292004307
148.19817 1557.1542 761 4287858348
149.11926 1557.0825 760 4282529116
-51.93578 1555.8569 759 4294966777
-50.700916 1555.7871 758 4294964977
-49.627522 1555.8569 759 4294965491
-48.396332 1555.7871 758 4294966517
-47.244038 1555.7871 758 4294967292
-46.165138 1555.8569 759 4294967295
-45.154129 1555.9963 761 4294636784
-44.205505 1556.2056 764 4293123294
-43.042202 1556.2056 764 4292728537
-41.878899 1556.2056 764 4294570472
-40.844036 1556.345 766 4294967295
-39.677063 1556.345 766 4294967295
-38.570641 1556.4147 767 4294967295
-37.401836 1556.4147 767 4294967295
-36.233028 1556.4147 767 4294967295
-35.119267 1556.4844 768 4294967295
-33.948624 1556.4844 768 4294967295
-32.777981 1556.4844 768 4294967294
-31.706423 1556.6239 770 4294967295
-30.53211 1556.6239 770 4294967295
-29.403669 1556.6936 771 4294967295
-28.271559 1556.7633 772 4294967295
-27.13578 1556.833 773 4294967295
-25.99633 1556.9027 774 4294967295
-24.814678 1556.9027 774 4294967295
-23.633028 1556.9027 774 4294967295
-22.451376 1556.9027 774 4294242541
113.79082 1557.0422 776 4290428888
115.15413 1557.1119 777 4290231510
116.34129 1557.1119 777 4290429659
117.34679 1557.0422 776 4292206069
118.53211 1557.0422 776 4292730623
119.34679 1556.9027 774 4291020010
120.52844 1556.9027 774 4289442219
121.71009 1556.9027 774 4288652446
122.89175 1556.9027 774 4289768381
123.88074 1556.833 773 4294176255
125.06055 1556.833 773 4294307316
126.24036 1556.833 773 4294175731
127.22202 1556.7633 772 4294175985
128.2 1556.6936 771 4294438900
129.17432 1556.6239 770 4294373109
129.94128 1556.4844 768 4294899453
130.90642 1556.4147 767 4294374139
131.86789 1556.345 766 4294374139
133.03487 1556.345 766 4294571002
134.20183 1556.345 766 4294702844
135.15596 1556.2753 765 4294571256
136.32111 1556.2753 765 4294768635
137.48624 1556.2753 765 4294768633
138.65138 1556.2753 765 4294571254
139.59633 1556.2056 764 4294505211
140.75963 1556.2056 764 4294834175
141.47523 1556.066 762 4294505211
142.40918 1555.9963 761 4294505211
143.56697 1555.9963 761 4294438652
144.72478 1555.9963 761 4294833407
145.88257 1555.9963 761 4294965503
147.04036 1555.9963 761 4293057251
148.19817 1555.9963 761 4289175226
-53.005505 1554.6349 758 4294173666
-50.700916 1554.6349 758 4294965755
-49.548622 1554.6349 758 4294965755
-48.396332 1554.6349 758 4294967034
-47.244038 1554.6349 758 4294967294
-46.091743 1554.6349 758 4294967282
-45.011009 1554.7028 759 4294967282
-43.926605 1554.7706 760 4293848048
-42.838531 1554.8385 761 4292334553
-41.746788 1554.9064 762 4292991456
-40.779816 1555.1101 765 4294967295
-39.677063 1555.178 766 4294967295
-38.51009 1555.178 766 4294967295
-37.343121 1555.178 766 4294967295
-36.233028 1555.2458 767 4294967295
-35.06422 1555.2458 767 4294967295
-33.895412 1555.2458 767 4294967295
-32.777981 1555.3137 768 4294967295
-31.60734 1555.3137 768 4294967295
-30.436697 1555.3137 768 4294967295
-29.357798 1555.4496 770 4294967295
-28.227524 1555.5175 771 4294967295
-27.093578 1555.5853 772 4294967295
-25.955963 1555.6532 773 4294967295
-24.776146 1555.6532 773 4294967295
-23.596331 1555.6532 773 4294967295
-22.521101 1555.8569 776 4294703353
-21.335779 1555.8569 776 4294109156
-20.150459 1555.8569 776 4294240742
113.79082 1555.8569 776 4289244626
114.97615 1555.8569 776 4289442262
116.16147 1555.8569 776 4290559961
116.98349 1555.7211 774 4293323263
118.16514 1555.7211 774 4293125119
119.16147 1555.6532 773 4288848585
120.34129 1555.6532 773 4287864466
121.5211 1555.6532 773 4289904048
122.70092 1555.6532 773 4292003294
123.68807 1555.5853 772 4294964991
124.67156 1555.5175 771 4294701810
125.84771 1555.5175 771 4294438639
126.82569 1555.4496 770 4294373107
127.6 1555.3137 768 4294438900
128.5688 1555.2458 767 4294438902
129.73761 1555.2458 767 4294965246
130.70091 1555.178 766 4294636286
131.86789 1555.178 766 4294504443
133.03487 1555.178 766 4294570488
133.99083 1555.1101 765 4294899453
135.3688 1555.178 766 4294505206
136.32111 1555.1101 765 4294571256
137.48624 1555.1101 765 4294637301
138.43303 1555.0422 764 4294176750
139.15596 1554.9064 762 4294308086
140.3156 1554.9064 762 4294768637
141.25137 1554.8385 761 4294504697
142.40918 1554.8385 761 4294504697
143.33945 1554.7706 760 4294504697
144.49541 1554.7706 760 4294636284
145.65138 1554.7706 760 4294767615
147.04036 1554.8385 761 4293451755
147.9633 1554.7706 760 4291543497
-50.620182 1553.4165 757 4294966266
-49.469727 1553.4165 757 4294966523
-48.319267 1553.4165 757 4294966516
-47.168808 1553.4165 757 4294966001
-46.018349 1553.4165 757 4294768106
-44.939449 1553.4825 758 4294967284
-43.787155 1553.4825 758 4294835193
-42.702751 1553.5486 759 4292992989
-41.614677 1553.6146 760 4292727505
-40.587154 1553.7468 762 4294965753
-39.614677 1553.9449 765 4294967295
-38.449543 1553.9449 765 4294967295
-37.343121 1554.011 766 4294967295
-36.176147 1554.011 766 4294967295
-35.009174 1554.011 766 4294967295
-33.842201 1554.011 766 4294967295
-32.726604 1554.077 767 4294967295
-31.557798 1554.077 767 4294967295
-30.38899 1554.077 767 4294967295
-29.266054 1554.1431 768 4294967295
-28.095413 1554.1431 768 4294967295
-27.009174 1554.2753 770 4294967295
-25.915596 1554.4073 772 4294967295
-24.737616 1554.4073 772 4294967295
-23.559633 1554.4073 772 4294967295
-22.416513 1554.4734 773 4294967295
-21.236698 1554.4734 773 4294570220
-20.088074 1554.5394 774 4293978340
114.97615 1554.6715 776 4290296537
116.16147 1554.6715 776 4290888183
116.98349 1554.5394 774 4292796159
117.98165 1554.4734 773 4293189630
118.97615 1554.4073 772 4288320948
120.15413 1554.4073 772 4287529854
121.14312 1554.3413 771 4292859343
122.31927 1554.3413 771 4293385447
123.49541 1554.3413 771 4293911791
124.08807 1554.1431 768 4293844968
125.25871 1554.1431 768 4294305263
126.23119 1554.077 767 4293978351
127.4 1554.077 767 4294373109
128.36697 1554.011 766 4294308086
129.73761 1554.077 767 4294571002
130.70091 1554.011 766 4294438904
131.86789 1554.011 766 4294570491
132.82568 1553.9449 765 4294570488
133.99083 1553.9449 765 4294767867
135.15596 1553.9449 765 4294176244
136.32111 1553.9449 765 4294308086
137.26973 1553.8789 764 4294702840
137.99634 1553.7468 762 4294374131
138.93578 1553.6808 761 4294307316
140.09358 1553.6808 761 4294570488
141.02753 1553.6146 760 4294308086
142.18349 1553.6146 760 4294505208
142.8844 1553.4825 758 4294636284
144.26605 1553.5486 759 4294570491
145.65138 1553.6146 760 4294242041
-49.469727 1552.2661 757 4294967290
-48.165138 1552.1376 755 4294966252
-47.018349 1552.1376 755 4294965995
-46.018349 1552.2661 757 4294899694
-44.867889 1552.2661 757 4294966516
-43.71743 1552.2661 757 4294966259
-42.634861 1552.3303 758 4294834160
-41.548622 1552.3945 759 4293847785
-40.522934 1552.5229 761 4293387234
-39.552292 1552.7156 764 4294701799
-38.449543 1552.7798 765 4294967295
-37.284405 1552.7798 765 4294967295
-36.176147 1552.844 766 4294967295
-35.009174 1552.844 766 4294967295
-33.842201 1552.844 766 4294967295
-32.675228 1552.844 766 4294967295
-31.557798 1552.9082 767 4294967295
-30.38899 1552.9082 767 4294967295
-29.220184 1552.9082 767 4294967295
-28.095413 1552.9725 768 4294967295
-26.92477 1552.9725 768 4294967295
-25.875229 1553.1652 771 4294967295
-24.699083 1553.1652 771 4294967295
-23.522936 1553.1652 771 4294967295
-22.416513 1553.2936 773 4294967295
-21.269724 1553.3578 774 4294966780
-20.088074 1553.3578 774 4293781992
113.79082 1553.4862 776 4288715722
116.16147 1553.4862 776 4293583359
116.98349 1553.3578 774 4293122815
117.98165 1553.2936 773 4291610585
118.79082 1553.1652 771 4287334039
119.96697 1553.1652 771 4288253858
120.95413 1553.101 770 4293188334
121.74679 1552.9725 768 4293977320
122.91743 1552.9725 768 4293648355
123.89358 1552.9082 767 4293713646
124.86606 1552.844 766 4294437369
126.03303 1552.844 766 4294174960
127.2 1552.844 766 4294372596
128.36697 1552.844 766 4294569716
129.53395 1552.844 766 4294701558
130.49541 1552.7798 765 4294438902
131.66055 1552.7798 765 4294504695
132.82568 1552.7798 765 4294504693
133.99083 1552.7798 765 4294833658
134.94312 1552.7156 764 4294307316
136.10641 1552.7156 764 4294373109
136.8367 1552.5872 762 4294571254
137.55963 1552.4587 760 4294702840
138.71559 1552.4587 760 4294373879
139.87157 1552.4587 760 4294308086
141.02753 1552.4587 760 4294308086
141.73212 1552.3303 758 4294373879
142.65688 1552.2661 757 4294504695
143.80734 1552.2661 757 4294373109
145.189 1552.3303 758 4294570491
-48.165138 1550.9908 755 4294963941
-47.018349 1550.9908 755 4294964712
-45.871559 1550.9908 755 4294898922
-44.72477 1550.9908 755 4294964972
-43.57798 1550.9908 755 4294964715
-42.566971 1551.1156 757 4294966257
-41.416515 1551.1156 757 4294110955
-40.330276 1551.178 758 4292926681
-39.365139 1551.3651 761 4293122502
-38.388992 1551.5522 764 4294967285
-37.284405 1551.6146 765 4294967295
-36.119267 1551.6146 765 4294967295
-35.009174 1551.677 766 4294967295
-33.842201 1551.677 766 4294967295
-32.675228 1551.677 766 4294967295
-31.508257 1551.677 766 4294967295
-30.341284 1551.677 766 4294967295
-29.220184 1551.7395 767 4294967295
-28.051376 1551.7395 767 4294967295
-26.882568 1551.7395 767 4294967295
-25.754128 1551.8019 768 4294967295
-24.660551 1551.9266 770 4294967295
-23.522936 1551.989 771 4294967295
-22.346788 1551.989 771 4294967295
-21.170643 1551.989 771 4294967295
-19.994495 1551.989 771 4294506744
-18.818348 1551.989 771 4294045159
116.80183 1552.1138 773 4291085285
117.61468 1551.989 771 4289503396
118.79082 1551.989 771 4288911259
119.77982 1551.9266 770 4289240753
120.57615 1551.8019 768 4293254127
121.74679 1551.8019 768 4293780457
122.72477 1551.7395 767 4293714663
123.69908 1551.677 766 4293846252
124.86606 1551.677 766 4293977838
126.03303 1551.677 766 4294042861
127.2 1551.677 766 4294437619
128.16513 1551.6146 765 4294174447
129.33028 1551.6146 765 4294240240
130.49541 1551.6146 765 4294174960
131.66055 1551.6146 765 4294240754
132.61652 1551.5522 764 4294109938
133.77982 1551.5522 764 4294175731
134.51743 1551.4275 762 4294109938
135.46239 1551.3651 761 4294438902
136.40367 1551.3027 760 4294571256
137.34128 1551.2404 759 4294702842
138.27522 1551.178 758 4294374392
139.42752 1551.178 758 4294045428
140.35596 1551.1156 757 4293979635
141.50642 1551.1156 757 4294176757
142.65688 1551.1156 757 4293978353
143.80734 1551.1156 757 4294438904
-48.088074 1549.7834 754 4294964718
-46.943119 1549.7834 754 4294966260
-45.871559 1549.844 755 4294965995
-44.72477 1549.844 755 4294965995
-43.57798 1549.844 755 4294965222
-42.431194 1549.844 755 4294966508
-41.284405 1549.844 755 4294570990
-40.137615 1549.844 755 4293978853
-39.115597 1549.9651 757 4292991706
-38.025688 1550.0256 758 4294570738
-36.873394 1550.0256 758 4294967295
-36.062386 1550.389 764 4294967295
-34.954128 1550.4496 765 4294967295
-33.78899 1550.4496 765 4294967295
-32.623852 1550.4496 765 4294967295
-31.508257 1550.5101 766 4294967295
-30.341284 1550.5101 766 4294967295
-29.174313 1550.5101 766 4294967295
-28.007339 1550.5101 766 4294967295
-26.882568 1550.5707 767 4294967295
-25.713762 1550.5707 767 4294967295
-24.583487 1550.6312 768 4294967295
-23.486238 1550.7523 770 4294967295
-22.311926 1550.7523 770 4294967295
-21.137615 1550.7523 770 4294967295
-19.963303 1550.7523 770 4294967295
-18.730276 1550.6312 768 4294966771
-17.559633 1550.6312 768 4294176998
117.43119 1550.7523 770 4287465859
118.23486 1550.6312 768 4290294958
119.4055 1550.6312 768 4291214807
120.57615 1550.6312 768 4293320183
121.55596 1550.5707 767 4293452259
122.53211 1550.5101 766 4293583845
123.69908 1550.5101 766 4293583845
124.86606 1550.5101 766 4293978603
125.83486 1550.4496 765 4293977838
127 1550.4496 765 4294174960
128.16513 1550.4496 765 4293977840
129.1266 1550.389 764 4294240756
130.49541 1550.4496 765 4294109938
131.45322 1550.389 764 4294109938
131.989 1550.2074 761 4294109938
133.14679 1550.2074 761 4294307316
134.30458 1550.2074 761 4294242293
135.03302 1550.0862 759 4294571002
135.97064 1550.0256 758 4294571256
136.90459 1549.9651 757 4294637049
138.05504 1549.9651 757 4294636797
139.20551 1549.9651 757 4294505211
140.35596 1549.9651 757 4294373879
141.50642 1549.9651 757 4294571002
142.65688 1549.9651 757 4294176244
143.80734 1549.9651 757 4294373879
-46.867889 1548.5798 753 4294965744
-45.798164 1548.6385 754 4294965232
-44.65321 1548.6385 754 4294965232
-43.508255 1548.6385 754 4294963684
-42.363304 1548.6385 754 4294965740
-41.218349 1548.6385 754 4294899440
-40.073395 1548.6385 754 4294702060
-38.92844 1548.6385 754 4293057751
-37.844036 1548.6973 755 4293584095
-36.697247 1548.6973 755 4294702060
-35.7211 1548.8734 758 4294967295
-34.78899 1549.1083 762 4294967295
-33.629356 1549.1083 762 4294967295
-32.469727 1549.1083 762 4294967295
-31.458715 1549.2844 765 4294967295
-30.293577 1549.2844 765 4294967295
-29.128441 1549.2844 765 4294967295
-27.963303 1549.2844 765 4294967295
-26.840366 1549.3431 766 4294967295
-25.673395 1549.3431 766 4294967295
-24.544954 1549.4019 767 4294967295
-23.376146 1549.4019 767 4294967295
-22.20734 1549.4019 767 4294967295
-21.038532 1549.4019 767 4294967295
-19.869724 1549.4019 767 4294967295
-18.730276 1549.4606 768 4294967295
-17.559633 1549.4606 768 4294900987
111.0367 1549.4019 767 4289643246
112.20551 1549.4019 767 4291086847
115.89358 1549.4606 768 4287663772
117.06422 1549.4606 768 4286544507
118.04954 1549.4019 767 4291807948
119.21835 1549.4019 767 4292137433
120.19817 1549.3431 766 4293058535
121.36514 1549.3431 766 4293057501
122.33945 1549.2844 765 4293386210
123.50459 1549.2844 765 4293583845
124.66972 1549.2844 765 4293912810
125.83486 1549.2844 765 4293846763
127 1549.2844 765 4293715434
127.9633 1549.2257 764 4293649387
129.1266 1549.2257 764 4294044144
129.87891 1549.1083 762 4294438902
130.83119 1549.0496 761 4294175731
131.77982 1548.9908 760 4294109938
132.93578 1548.9908 760 4294307316
133.45322 1548.8147 757 4294373107
134.60367 1548.8147 757 4294570742
135.32111 1548.6973 755 4294373109
136.4679 1548.6973 755 4294438902
137.61469 1548.6973 755 4294504695
139.20551 1548.8147 757 4294438902
140.35596 1548.8147 757 4294373109
141.50642 1548.8147 757 4294504695
142.20183 1548.6973 755 4294307316
-46.867889 1547.4366 753 4294965484
-45.798164 1547.4935 754 4294965493
-44.58165 1547.4366 753 4294965236
-43.438534 1547.4366 753 4294964718
-42.295414 1547.4366 753 4294966774
-41.152294 1547.4366 753 4294967285
-40.009174 1547.4366 753 4294967286
-38.866055 1547.4366 753 4294175212
-37.783485 1547.4935 754 4293517539
-36.638531 1547.4935 754 4293583843
-35.49358 1547.4935 754 4294965496
-34.403671 1547.5504 755 4294967295
-33.416515 1547.7211 758 4294967295
-32.315598 1547.778 759 4294967295
-31.21101 1547.8348 760 4294967295
-30.150459 1547.9486 762 4294967295
-29.082569 1548.0624 764 4294967295
-27.919266 1548.0624 764 4294967295
-26.755962 1548.0624 764 4294967295
-25.592661 1548.0624 764 4294967295
-24.46789 1548.1193 765 4294967295
-23.339449 1548.1761 766 4294967295
-22.137615 1548.1193 765 4294967295
-21.005505 1548.1761 766 4294967295
-19.838531 1548.1761 766 4294967295
-18.730276 1548.2899 768 4294967295
-17.559633 1548.2899 768 4294967295
-16.363302 1548.233 767 4294374129
108.52844 1548.1761 766 4288390603
111.0367 1548.233 767 4292008703
112.20551 1548.233 767 4292533759
113.37431 1548.233 767 4289573078
115.26238 1548.4606 771 4287532966
116.25688 1548.4037 770 4287401379
116.88074 1548.233 767 4288582326
117.86422 1548.1761 766 4292990200
119.03119 1548.1761 766 4292925659
120.19817 1548.1761 766 4293123294
121.17431 1548.1193 765 4293056986
122.33945 1548.1193 765 4293254108
123.50459 1548.1193 765 4293714913
124.4734 1548.0624 764 4293912293
125.6367 1548.0624 764 4293715432
126.8 1548.0624 764 4293715432
127.55963 1547.9486 762 4293715180
128.51559 1547.8917 761 4293649387
129.4679 1547.8348 760 4294110189
130.41652 1547.778 759 4294110189
131.57065 1547.778 759 4294241007
132.51376 1547.7211 758 4294241007
133.02753 1547.5504 755 4294307051
134.17432 1547.5504 755 4294701808
135.10458 1547.4935 754 4294504695
136.24954 1547.4935 754 4294438902
137.61469 1547.5504 755 4294438902
138.76147 1547.5504 755 4294438902
139.90826 1547.5504 755 4294373877
141.50642 1547.6642 757 4294373877
142.20183 1547.5504 755 4294438900
-44.58165 1546.2936 753 4294965489
-43.438534 1546.2936 753 4294964974
-42.295414 1546.2936 753 4294965488
-41.152294 1546.2936 753 4294966001
-40.009174 1546.2936 753 4294967288
-38.866055 1546.2936 753 4294899440
-37.722935 1546.2936 753 4294109667
-36.579815 1546.2936 753 4293648605
-35.49358 1546.3486 754 4293977570
-34.348625 1546.3486 754 4294966514
-33.256882 1546.4037 755 4294967295
-32.212845 1546.5138 757 4294967295
-31.062386 1546.5138 757 4294967295
-30.007339 1546.6239 759 4294967295
-28.944954 1546.7339 761 4294967295
-27.831192 1546.7889 762 4294967295
-26.755962 1546.899 764 4294967295
-25.592661 1546.899 764 4294967295
-24.429358 1546.899 764 4294967295
-23.302752 1546.9541 765 4294967295
-22.137615 1546.9541 765 4294967295
-21.005505 1547.0092 766 4294967295
-19.807339 1546.9541 765 4294967295
-18.67156 1547.0092 766 4294967295
-17.53211 1547.0642 767 4294967295
-16.363302 1547.0642 767 4294967295
-15.170642 1547.0092 766 4294505460
107.19266 1546.9541 765 4288390603
108.52844 1547.0092 766 4288456396
109.69541 1547.0092 766 4289113571
110.86239 1547.0092 766 4291876863
112.02936 1547.0092 766 4292402681
113.19633 1547.0092 766 4287731378
114.3633 1547.0092 766 4287988608
115.53027 1547.0092 766 4289567897
116.69725 1547.0092 766 4290686904
117.86422 1547.0092 766 4293187039
119.03119 1547.0092 766 4292990169
120.00917 1546.9541 765 4292990169
121.17431 1546.9541 765 4292859091
122.14679 1546.899 764 4293056214
123.31009 1546.899 764 4293253599
124.08073 1546.7889 762 4293516515
125.24036 1546.7889 762 4293648868
126.2 1546.7339 761 4293648868
127.15596 1546.679 760 4293649641
128.31192 1546.679 760 4293649641
129.05688 1546.5688 758 4293912556
130.00183 1546.5138 757 4293912556
131.1523 1546.5138 757 4293912043
131.88074 1546.4037 755 4294109421
132.81468 1546.3486 754 4293977318
133.95964 1546.3486 754 4294503662
135.10458 1546.3486 754 4294438389
136.24954 1546.3486 754 4294174960
137.3945 1546.3486 754 4294240756
138.53944 1546.3486 754 4294701307
139.90826 1546.4037 755 4294767867
141.05504 1546.4037 755 4294504695
-44.58165 1545.1505 753 4294966256
-43.438534 1545.1505 753 4294965745
-42.295414 1545.1505 753 4294965232
-41.152294 1545.1505 753 4294965231
-40.009174 1545.1505 753 4294966773
-38.866055 1545.1505 753 4294965743
-37.783485 1545.2036 754 4294966001
-36.638531 1545.2036 754 4294570220
-35.49358 1545.2036 754 4293386203
-34.348625 1545.2036 754 4293978599
-33.256882 1545.2568 755 4294967036
-32.110092 1545.2568 755 4294967295
-31.062386 1545.3633 757 4294967295
-29.959633 1545.4165 758 4294967295
-28.85321 1545.4697 759 4294967295
-27.74312 1545.5229 760 4294967295
-26.67156 1545.6294 762 4294967295
-25.511927 1545.6294 762 4294967295
-24.429358 1545.7358 764 4294967295
-23.266054 1545.7358 764 4294967295
-22.137615 1545.7889 765 4294967295
-20.972477 1545.7889 765 4294967295
-19.807339 1545.7889 765 4294967295
-18.642202 1545.7889 765 4294967295
-17.477064 1545.7889 765 4294967295
-16.337614 1545.8422 766 4294967295
-15.170642 1545.8422 766 4294967295
-14.00367 1545.8422 766 4294570740
106.1945 1545.8422 766 4288456146
107.19266 1545.7889 765 4288586701
108.52844 1545.8422 766 4289836767
109.52293 1545.7889 765 4290362089
110.68807 1545.7889 765 4290954227
111.85321 1545.7889 765 4290229443
113.01835 1545.7889 765 4286413449
114.3633 1545.8422 766 4287727237
115.34863 1545.7889 765 4291214010
116.51376 1545.7889 765 4291739591
117.49358 1545.7358 764 4292989657
118.65688 1545.7358 764 4292727253
120.00917 1545.7889 765 4292858839
120.41101 1545.5762 761 4292793298
121.56881 1545.5762 761 4292990420
122.9211 1545.6294 762 4293055199
123.49174 1545.4697 759 4293187041
125.0422 1545.5762 761 4293319652
125.4 1545.3633 757 4293385701
126.55046 1545.3633 757 4293518052
127.70092 1545.3633 757 4293649638
128.44037 1545.2568 755 4293846250
129.58716 1545.2568 755 4293846250
130.52477 1545.2036 754 4293715434
131.45871 1545.1505 753 4294438900
132.60184 1545.1505 753 4294110189
133.95964 1545.2036 754 4294044396
134.67155 1545.0973 752 4294109938
136.03119 1545.1505 753 4293978351
137.17432 1545.1505 753 4294240756
138.53944 1545.2036 754 4294767100
139.90826 1545.2568 755 4294636282
-42.227524 1543.9559 752 4294966521
-41.152294 1544.0073 753 4294965232
-39.944954 1543.9559 752 4294966260
-38.866055 1544.0073 753 4294965745
-37.722935 1544.0073 753 4294966517
-36.579815 1544.0073 753 4294966520
-35.436699 1544.0073 753 4293978340
-34.348625 1544.0587 754 4293319894
-33.203671 1544.0587 754 4294767340
-32.110092 1544.1101 755 4294966518
-30.963303 1544.1101 755 4294967295
-29.911926 1544.2129 757 4294967295
-28.807339 1544.2642 758 4294967295
-27.699083 1544.3156 759 4294967295
-26.587156 1544.3669 760 4294967295
-25.47156 1544.4183 761 4294967295
-24.352293 1544.4697 762 4294967295
-23.266054 1544.5725 764 4294967295
-22.102753 1544.5725 764 4294967295
-20.972477 1544.6239 765 4294967295
-19.807339 1544.6239 765 4294967295
-18.642202 1544.6239 765 4294967295
-17.477064 1544.6239 765 4294967295
-16.337614 1544.6752 766 4294967295
-15.146789 1544.6239 765 4294967295
-13.981651 1544.6239 765 4294967295
101.20734 1544.5725 764 4289243581
102.37064 1544.5725 764 4288259276
105.02752 1544.6752 766 4288390353
106.1945 1544.6752 766 4288324560
107.19266 1544.6239 765 4288521423
108.52844 1544.6752 766 4290429420
109.52293 1544.6239 765 4291217637
110.68807 1544.6239 765 4289638861
111.85321 1544.6239 765 4288912011
113.01835 1544.6239 765 4287859322
114.18349 1544.6239 765 4288907412
115.16697 1544.5725 764 4292526026
116.33028 1544.5725 764 4292397255
117.12293 1544.4697 762 4292792013
118.09541 1544.4183 761 4292398538
119.25321 1544.4183 761 4292727503
120.22018 1544.3669 760 4292793550
121.18349 1544.3156 759 4293056466
122.14312 1544.2642 758 4293055705
123.29541 1544.2642 758 4293121498
124.24954 1544.2129 757 4293188317
125.4 1544.2129 757 4293254110
126.14679 1544.1101 755 4293189088
127.29358 1544.1101 755 4293386210
128.23486 1544.0587 754 4293386214
129.37982 1544.0587 754 4293583593
130.3156 1544.0073 753 4293386984
131.24771 1543.9559 752 4293847535
132.38899 1543.9559 752 4293848046
133.74495 1544.0073 753 4293716460
134.67155 1543.9559 752 4293715693
135.81285 1543.9559 752 4293715693
136.95413 1543.9559 752 4293978353
138.53944 1544.0587 754 4294109940
-41.086239 1542.8147 752 4294967295
-39.944954 1542.8147 752 4294967295
-38.803669 1542.8147 752 4294967292
-37.722935 1542.8643 753 4294967290
-36.579815 1542.8643 753 4294966773
-35.436699 1542.8643 753 4294967288
-34.293579 1542.8643 753 4294965487
-33.150459 1542.8643 753 4294175714
-32.007339 1542.8643 753 4294636265
-30.913761 1542.9138 754 4294965744
-29.816513 1542.9633 755 4294967295
-28.761467 1543.0624 757 4294967295
-27.655046 1543.1119 758 4294967295
-26.544954 1543.1615 759 4294967295
-25.431192 1543.2111 760 4294967295
-24.275229 1543.2111 760 4294967295
-23.192661 1543.3101 762 4294967295
-22.033028 1543.3101 762 4294967295
-20.939449 1543.4092 764 4294967295
-19.776146 1543.4092 764 4294967295
-18.612844 1543.4092 764 4294967295
-17.449541 1543.4092 764 4294967295
-16.311926 1543.4587 765 4294967295
-15.122936 1543.4092 764 4294967295
-13.959633 1543.4092 764 4294967295
-12.755963 1543.3101 762 4294967295
-11.596331 1543.3101 762 4294767856
102.37064 1543.4092 764 4289179614
103.53394 1543.4092 764 4289048028
104.86239 1543.4587 765 4288916695
106.02752 1543.4587 765 4288850902
107.02385 1543.4092 764 4289638106
108.18716 1543.4092 764 4291151088
109.35046 1543.4092 764 4290953425
110.16514 1543.3101 762 4286676623
111.32477 1543.3101 762 4286937705
112.48441 1543.3101 762 4290227355
113.64404 1543.3101 762 4291606721
114.80367 1543.3101 762 4292527823
115.9633 1543.3101 762 4292265407
116.93761 1543.2605 761 4292857545
117.90826 1543.2111 760 4292595655
119.06422 1543.2111 760 4292727242
120.02936 1543.1615 759 4292858571
120.99083 1543.1119 758 4292990157
121.94862 1543.0624 757 4292990161
123.09908 1543.0624 757 4293055954
123.85321 1542.9633 755 4293057238
125 1542.9633 755 4293188567
125.94495 1542.9138 754 4293254110
127.0899 1542.9138 754 4293385697
127.82385 1542.8147 752 4293779689
128.96513 1542.8147 752 4294108654
130.10641 1542.8147 752 4293715434
131.0367 1542.7651 751 4293978349
132.17615 1542.7651 751 4293912556
133.3156 1542.7651 751 4293517798
134.45505 1542.7651 751 4293912558
135.5945 1542.7651 751 4293912558
136.95413 1542.8147 752 4294044146
138.09541 1542.8147 752 4294044146
-41.152294 1541.7211 753 4294967295
-39.944954 1541.6733 752 4294967295
-38.866055 1541.7211 753 4294967295
-37.662384 1541.6733 752 4294967293
-36.521099 1541.6733 752 4294965747
-35.436699 1541.7211 753 4294967292
-34.293579 1541.7211 753 4294967033
-33.150459 1541.7211 753 4294505197
-32.007339 1541.7211 753 4293780704
-30.86422 1541.7211 753 4294570220
-29.768806 1541.7688 754 4294833645
-28.669725 1541.8165 755 4294967295
-27.61101 1541.9119 757 4294967295
-26.46055 1541.9119 757 4294967295
-25.350458 1541.9596 758 4294967295
-24.236698 1542.0073 759 4294967295
-23.119267 1542.0551 760 4294967295
-21.998165 1542.1028 761 4294967295
-20.840366 1542.1028 761 4294967295
-19.713762 1542.1505 762 4294967295
-18.554129 1542.1505 762 4294967295
-17.394495 1542.1505 762 4294967295
-16.286238 1542.2458 764 4294967295
-15.122936 1542.2458 764 4294967295
-13.915596 1542.1505 762 4294967295
-12.755963 1542.1505 762 4294967295
-11.596331 1542.1505 762 4294967295
-10.436697 1542.1505 762 4294242541
99.728439 1542.1505 762 4288849359
100.88808 1542.1505 762 4289638619
102.37064 1542.2458 764 4289638880
103.53394 1542.2458 764 4289310171
104.69725 1542.2458 764 4289440987
105.86055 1542.2458 764 4289770209
106.68624 1542.1505 762 4290755035
107.84587 1542.1505 762 4290294484
109.0055 1542.1505 762 4289505445
109.99083 1542.1028 761 4286873725
111.14862 1542.1028 761 4287331178
112.30642 1542.1028 761 4290950049
113.46422 1542.1028 761 4292132804
114.62202 1542.1028 761 4292132804
115.77982 1542.1028 761 4292001206
116.7523 1542.0551 760 4292790466
117.7211 1542.0073 759 4292463815
118.68624 1541.9596 758 4292398022
119.64771 1541.9119 757 4292398022
120.41284 1541.8165 755 4292398022
121.55963 1541.8165 755 4292595663
122.70642 1541.8165 755 4292859091
123.65504 1541.7688 754 4292728018
124.8 1541.7688 754 4292991191
125.74312 1541.7211 753 4293319904
126.88624 1541.7211 753 4293451746
128.02936 1541.7211 753 4294042600
128.96513 1541.6733 752 4293910757
129.89725 1541.6257 751 4293450210
131.0367 1541.6257 751 4293910761
131.9633 1541.578 750 4293780203
133.3156 1541.6257 751 4293846252
134.23853 1541.578 750 4294307314
135.37614 1541.578 750 4293912556
136.73395 1541.6257 751 4293912558
137.8734 1541.6257 751 4293912558
-39.944954 1540.5321 752 4294967289
-38.803669 1540.5321 752 4294967295
-37.662384 1540.5321 752 4294967295
-36.521099 1540.5321 752 4294967295
-35.322937 1540.4862 751 4294967295
-34.238533 1540.5321 752 4294967295
-33.044037 1540.4862 751 4294967295
-31.955963 1540.5321 752 4294967294
-30.814678 1540.5321 752 4294242541
-29.673395 1540.5321 752 4294373348
-28.669725 1540.6697 755 4294636263
-27.61101 1540.7615 757 4294967037
-26.46055 1540.7615 757 4294967295
-25.310091 1540.7615 757 4294967295
-24.159634 1540.7615 757 4294967295
-23.045872 1540.8074 758 4294967295
-21.963303 1540.899 760 4294967295
-20.807339 1540.899 760 4294967295
-19.651377 1540.899 760 4294967295
-18.495413 1540.899 760 4294967295
-17.366972 1540.9449 761 4294967295
-16.234863 1540.9908 762 4294967295
-15.07523 1540.9908 762 4294967295
-13.915596 1540.9908 762 4294967295
-12.73578 1540.9449 761 4294967295
-11.596331 1540.9908 762 4294967295
-10.420183 1540.9449 761 4294967295
98.412842 1540.9449 761 4289637072
100.88808 1540.9908 762 4289769185
101.88624 1540.9449 761 4289769185
103.20734 1540.9908 762 4290229736
104.20184 1540.9449 761 4290624484
105.5266 1540.9908 762 4291413744
106.51743 1540.9449 761 4290886107
107.67523 1540.9449 761 4287267492
108.83303 1540.9449 761 4286873711
109.81651 1540.899 760 4288781708
110.97248 1540.899 760 4289765802
112.12844 1540.899 760 4291081662
113.2844 1540.899 760 4291869618
114.25871 1540.8533 759 4291935411
115.41284 1540.8533 759 4291673266
116.38165 1540.8074 758 4292133817
117.34679 1540.7615 757 4292199621
118.49725 1540.7615 757 4292199621
119.64771 1540.7615 757 4292265918
120.41284 1540.6697 755 4292660676
121.36514 1540.6239 754 4292595154
122.51009 1540.6239 754 4292989655
123.45688 1540.578 753 4292859091
124.6 1540.578 753 4292793298
125.54128 1540.5321 752 4293253851
126.4789 1540.4862 751 4293385437
127.82385 1540.5321 752 4293713117
128.7578 1540.4862 751 4293778910
129.4789 1540.3945 749 4293385188
130.61469 1540.3945 749 4293779689
131.75046 1540.3945 749 4293780457
133.10092 1540.4403 750 4293846250
134.23853 1540.4403 750 4293583843
-37.662384 1539.3909 752 4294967295
-36.462387 1539.3468 751 4294967295
-35.322937 1539.3468 751 4294967295
-34.183487 1539.3468 751 4294967295
-32.990826 1539.3027 750 4294967295
-31.85321 1539.3027 750 4294967295
-30.715597 1539.3027 750 4294966780
-29.577982 1539.3027 750 4293979366
-28.486238 1539.3468 751 4293650402
-27.390825 1539.3909 752 4294175462
-26.291742 1539.4348 753 4294967034
-25.148624 1539.4348 753 4294967295
-24.082569 1539.5229 755 4294967295
-23.009174 1539.611 757 4294967295
-21.893578 1539.655 758 4294967295
-20.741285 1539.655 758 4294967295
-19.588991 1539.655 758 4294967295
-18.466055 1539.6991 759 4294967295
-17.311926 1539.6991 759 4294967295
-16.209175 1539.7871 761 4294967295
-15.051376 1539.7871 761 4294967295
-13.893578 1539.7871 761 4294967295
-12.73578 1539.7871 761 4294967295
-11.577982 1539.7871 761 4294967295
-10.420183 1539.7871 761 4294967295
-9.2623854 1539.7871 761 4294967295
99.570641 1539.7871 761 4289571031
100.72844 1539.7871 761 4289965533
101.88624 1539.7871 761 4289900260
103.04404 1539.7871 761 4290558189
104.20184 1539.7871 761 4291214825
105.35963 1539.7871 761 4291017190
106.51743 1539.7871 761 4290031541
107.50459 1539.7432 760 4287070600
108.66055 1539.7432 760 4286608993
109.6422 1539.6991 759 4290161814
110.79633 1539.6991 759 4290620848
111.95046 1539.6991 759 4291081399
112.92477 1539.655 758 4291540403
113.89542 1539.611 757 4291540403
115.22935 1539.655 758 4291278510
115.82569 1539.5229 755 4291410096
116.97248 1539.5229 755 4291804854
117.93027 1539.4789 754 4292199612
119.07523 1539.4789 754 4292265659
120.22018 1539.4789 754 4292331452
121.17064 1539.4348 753 4292265669
122.11743 1539.3909 752 4292726219
123.25871 1539.3909 752 4292661712
124.2 1539.3468 751 4292529870
125.33945 1539.3468 751 4292726222
126.4789 1539.3468 751 4293252566
127.61835 1539.3468 751 4293186521
128.55046 1539.3027 750 4293120727
129.26973 1539.2147 748 4293318368
130.40367 1539.2147 748 4293318368
131.53761 1539.2147 748 4293188317
132.67155 1539.2147 748 4292991195
-36.344955 1538.1229 749 4294967295
-35.209175 1538.1229 749 4294967295
-34.073395 1538.1229 749 4294967295
-32.884403 1538.0807 748 4294967295
-31.750458 1538.0807 748 4294967295
-30.616514 1538.0807 748 4294967295
-29.482569 1538.0807 748 4294967295
-28.348623 1538.0807 748 4294967291
-27.21468 1538.0807 748 4294307312
-26.249542 1538.2495 752 4294175983
-25.108257 1538.2495 752 4294966516
-24.005505 1538.2917 753 4294967295
-22.899082 1538.334 754 4294967295
-21.78899 1538.3761 755 4294967295
-20.708258 1538.4606 757 4294967295
-19.557798 1538.4606 757 4294967295
-18.407339 1538.4606 757 4294967295
-17.284403 1538.5028 758 4294967295
-16.157799 1538.5449 759 4294967295
-15.00367 1538.5449 759 4294967295
-13.893578 1538.6294 761 4294967295
-12.73578 1538.6294 761 4294967295
-11.577982 1538.6294 761 4294967295
-10.420183 1538.6294 761 4294967295
-9.2623854 1538.6294 761 4294967295
-8.1045876 1538.6294 761 4294967295
-6.9467888 1538.6294 761 4294967295
-5.7798166 1538.5872 760 4294967295
-4.6165137 1538.5449 759 4294967295
94.788994 1538.5872 760 4289702095
95.944954 1538.5872 760 4289241544
98.256882 1538.5872 760 4289768922
99.570641 1538.6294 761 4289571540
100.72844 1538.6294 761 4290163933
101.72477 1538.5872 760 4290953445
102.88074 1538.5872 760 4291874547
104.0367 1538.5872 760 4291346925
105.19266 1538.5872 760 4287793846
106.34863 1538.5872 760 4287005545
107.33395 1538.5449 759 4287532145
108.3156 1538.5028 758 4288713880
109.29358 1538.4606 757 4290687670
110.62019 1538.5028 758 4290948775
111.77248 1538.5028 758 4290817446
112.92477 1538.5028 758 4291013805
113.89542 1538.4606 757 4291013805
115.04587 1538.4606 757 4290949296
115.82569 1538.3761 755 4291344053
116.78532 1538.334 754 4291673516
117.74129 1538.2917 753 4292068274
118.88441 1538.2917 753 4292396727
119.83486 1538.2495 752 4292396727
120.78165 1538.2074 751 4292200127
121.9211 1538.2074 751 4292397507
123.06055 1538.2074 751 4292463563
124 1538.1652 750 4292397770
125.13761 1538.1652 750 4292397259
126.07156 1538.1229 749 4293186519
127.20734 1538.1229 749 4292988892
128.13577 1538.0807 748 4292725720
129.26973 1538.0807 748 4292857819
130.40367 1538.0807 748 4293121248
131.11192 1537.9963 746 4293056216
-34.018349 1536.9468 748 4294967031
-32.884403 1536.9468 748 4294967288
-31.750458 1536.9468 748 4294967295
-30.517431 1536.8661 746 4294967295
-29.387156 1536.8661 746 4294967295
-28.25688 1536.8661 746 4294967295
-27.082569 1536.8257 745 4294636784
-26.080734 1536.9468 748 4293978853
-24.987156 1536.9872 749 4294503653
-23.92844 1537.0679 751 4294967288
-22.825687 1537.1083 752 4294967295
-21.684404 1537.1083 752 4294967295
-20.576147 1537.1487 753 4294967295
-19.46422 1537.189 754 4294967295
-18.319265 1537.189 754 4294967295
-17.201836 1537.2294 755 4294967295
-16.055046 1537.2294 755 4294967295
-14.955963 1537.3101 757 4294967295
-13.827523 1537.3505 758 4294967295
-12.675229 1537.3505 758 4294967295
-11.522936 1537.3505 758 4294967295
-10.403669 1537.4312 760 4294967295
-9.2477064 1537.4312 760 4294967295
-8.0917435 1537.4312 760 4294967295
-6.93578 1537.4312 760 4294967295
-5.7798166 1537.4312 760 4294967295
-4.6165137 1537.3909 759 4294967295
-3.46789 1537.4312 760 4294967295
-2.3082569 1537.3909 759 4294636786
-1.1541284 1537.3909 759 4294307564
0 1537.3909 759 4293715682
94.788994 1537.4312 760 4289372621
95.944954 1537.4312 760 4289767379
97.100914 1537.4312 760 4289703121
98.256882 1537.4312 760 4289834450
99.412842 1537.4312 760 4289506780
100.56881 1537.4312 760 4290493676
101.5633 1537.3909 759 4290626531
102.71743 1537.3909 759 4290363359
103.87156 1537.3909 759 4290689483
104.85872 1537.3505 758 4287202197
106.01101 1537.3505 758 4285492308
106.99266 1537.3101 757 4288452993
108.14312 1537.3101 757 4289504161
108.94495 1537.2294 755 4290096299
110.44404 1537.3101 757 4290553254
111.77248 1537.3505 758 4290948012
112.92477 1537.3505 758 4290817196
113.53211 1537.2294 755 4290817196
114.6789 1537.2294 755 4291080627
115.64037 1537.189 754 4291278262
116.41101 1537.1083 752 4291410610
117.55229 1537.1083 752 4291542452
118.31193 1537.0275 750 4291738548
119.44954 1537.0275 750 4291869877
120.58716 1537.0275 750 4292133567
121.72477 1537.0275 750 4292396996
122.66422 1536.9872 749 4292397772
123.6 1536.9468 748 4292200394
124.73395 1536.9468 748 4292068292
125.86789 1536.9468 748 4292660172
127.00183 1536.9468 748 4292660695
128.13577 1536.9468 748 4292726488
128.85138 1536.8661 746 4292726742
129.98166 1536.8661 746 4292858071
130.89908 1536.8257 745 4292727253
-33.908257 1535.7358 746 4294964974
-32.884403 1535.8129 748 4294966002
-31.750458 1535.8129 748 4294966525
-30.616514 1535.8129 748 4294967295
-29.482569 1535.8129 748 4294967295
-28.21101 1535.6973 745 4294967295
-27.038532 1535.6587 744 4294966516
-25.911926 1535.6587 744 4294967029
-24.946789 1535.8129 748 4294899442
-23.812843 1535.8129 748 4294570220
-22.752293 1535.8899 750 4294570738
-21.649542 1535.9285 751 4294966524
-20.543119 1535.9669 752 4294967295
-19.433027 1536.0055 753 4294967295
-18.289907 1536.0055 753 4294967295
-17.14679 1536.0055 753 4294967295
-16.029358 1536.0441 754 4294967295
-14.884403 1536.0441 754 4294967295
-13.73945 1536.0441 754 4294967295
-12.614679 1536.0825 755 4294967295
-11.46789 1536.0825 755 4294967295
-10.370643 1536.1981 758 4294967295
-9.2330275 1536.2367 759 4294967295
-8.0788994 1536.2367 759 4294967295
-6.9247708 1536.2367 759 4294967295
-5.7798166 1536.2753 760 4294967295
-4.6165137 1536.2367 759 4294967295
-3.4623854 1536.2367 759 4294967295
-2.3082569 1536.2367 759 4294967295
-1.1522936 1536.1981 758 4294967295
0 1536.1981 758 4294967295
93.484406 1536.2367 759 4288782026
94.788994 1536.2753 760 4289440976
95.944954 1536.2753 760 4289572562
96.946793 1536.2367 759 4289375181
98.100914 1536.2367 759 4290033367
99.412842 1536.2753 760 4291151590
100.40917 1536.2367 759 4291678190
101.5633 1536.2367 759 4290690514
102.55413 1536.1981 758 4286808727
103.54128 1536.1597 757 4286675831
104.69174 1536.1597 757 4287004795
105.8422 1536.1597 757 4287990405
106.99266 1536.1597 757 4289832609
108.14312 1536.1597 757 4290160545
109.29358 1536.1597 757 4290226594
110.44404 1536.1597 757 4290553506
111.5945 1536.1597 757 4291014057
112.74496 1536.1597 757 4290948264
112.98716 1535.9669 752 4290816678
114.12844 1535.9669 752 4290817457
115.26972 1535.9669 752 4291080629
116.22385 1535.9285 751 4291211954
117.3633 1535.9285 751 4291277747
117.93027 1535.8129 748 4291607225
119.06422 1535.8129 748 4291607225
120.39266 1535.8513 749 4291607745
121.33211 1535.8129 748 4292068296
122.46606 1535.8129 748 4292069319
123.6 1535.8129 748 4292069319
124.73395 1535.8129 748 4292068807
125.46055 1535.7358 746 4292529358
127.00183 1535.8129 748 4292660693
127.7211 1535.7358 746 4292726742
128.6422 1535.6973 745 4292660693
129.77065 1535.6973 745 4292858071
-31.647707 1534.6055 746 4294967291
-30.517431 1534.6055 746 4294967292
-29.387156 1534.6055 746 4294967291
-28.165138 1534.5321 744 4294966777
-27.038532 1534.5321 744 4294966261
-25.911926 1534.5321 744 4294966261
-24.825687 1534.5688 745 4294965744
-23.697248 1534.5688 745 4294636265
-22.6789 1534.679 748 4293912806
-21.614679 1534.7523 750 4294373357
-20.510092 1534.7889 751 4294966263
-19.401834 1534.8257 752 4294967295
-18.289907 1534.8624 753 4294967295
-17.14679 1534.8624 753 4294967295
-16.00367 1534.8624 753 4294967295
-14.860551 1534.8624 753 4294967295
-13.717431 1534.8624 753 4294967295
-12.594496 1534.899 754 4294967295
-11.449541 1534.899 754 4294967295
-10.354129 1535.0092 757 4294967295
-9.2183485 1535.0459 758 4294967295
-8.0660553 1535.0459 758 4294967295
-6.9247708 1535.0825 759 4294967295
-5.7798166 1535.1193 760 4294967295
-4.6091743 1535.0459 758 4294967295
-3.4623854 1535.0825 759 4294967295
-2.3045871 1535.0459 758 4294967295
-1.1522936 1535.0459 758 4294967295
0 1535.0459 758 4294967295
1.1504587 1535.0092 757 4294967295
93.484406 1535.0825 759 4288455880
94.638535 1535.0825 759 4289440978
95.792664 1535.0825 759 4289572564
96.946793 1535.0825 759 4288851156
98.100914 1535.0825 759 4290167016
99.255043 1535.0825 759 4291086569
100.24954 1535.0459 758 4290888933
101.24036 1535.0092 757 4289179062
102.39082 1535.0092 757 4286218121
103.21101 1534.9358 755 4285556834
104.3578 1534.9358 755 4288122760
105.50459 1534.9358 755 4289436567
106.65137 1534.9358 755 4290028961
107.79816 1534.9358 755 4290159010
108.42202 1534.8257 752 4290487974
109.5633 1534.8257 752 4290487974
110.5266 1534.7889 751 4290553767
111.66605 1534.7889 751 4290619299
112.8055 1534.7889 751 4290816678
113.94495 1534.7889 751 4290750379
115.0844 1534.7889 751 4290948014
115.84954 1534.7156 749 4291276975
116.79633 1534.679 748 4291342768
117.54862 1534.6055 746 4291607221
118.6789 1534.6055 746 4291607221
119.80917 1534.6055 746 4291345337
120.93945 1534.6055 746 4291937217
122.06973 1534.6055 746 4291806662
123.2 1534.6055 746 4291872711
124.33028 1534.6055 746 4291937737
125.46055 1534.6055 746 4292266702
126.59083 1534.6055 746 4292463313
127.30642 1534.5321 744 4292529106
-30.368807 1533.3706 743 4294967283
-29.291742 1533.4055 744 4294967290
-28.119267 1533.3706 743 4294967032
-26.994495 1533.3706 743 4294966260
-25.869724 1533.3706 743 4294965745
-24.78532 1533.4055 744 4294965736
-23.658716 1533.4055 744 4294966508
-22.53211 1533.4055 744 4294965492
-21.544954 1533.5449 748 4294438891
-20.411009 1533.5449 748 4294503651
-19.308256 1533.5798 749 4294108893
-18.26055 1533.6844 752 4294570472
-17.119267 1533.6844 752 4294967295
-15.977982 1533.6844 752 4294967295
-14.836698 1533.6844 752 4294967295
-13.695413 1533.6844 752 4294967295
-12.574312 1533.7192 753 4294967295
-11.431192 1533.7192 753 4294967295
-10.288074 1533.7192 753 4294967295
-9.1596327 1533.7542 754 4294967295
-8.0532112 1533.8588 757 4294967295
-6.9027524 1533.8588 757 4294967295
-5.7614679 1533.8936 758 4294967295
-4.6018348 1533.8588 757 4294967295
-3.4513762 1533.8588 757 4294967295
-2.3009174 1533.8588 757 4294967295
-1.1504587 1533.8588 757 4294967295
0 1533.8588 757 4294967295
1.146789 1533.7889 755 4294967295
93.335777 1533.8936 758 4288981720
94.488075 1533.8936 758 4289835986
95.640366 1533.8936 758 4290691039
96.792664 1533.8936 758 4291217637
97.788994 1533.8588 757 4291415016
99.097244 1533.8936 758 4290229461
100.0899 1533.8588 757 4286347674
101.24036 1533.8588 757 4286347381
102.06422 1533.7889 755 4286873725
103.04587 1533.7542 754 4288515971
104.19083 1533.7542 754 4289963418
105.33578 1533.7542 754 4290028194
106.48074 1533.7542 754 4289896607
107.28073 1533.6844 752 4290027425
108.2477 1533.6495 751 4290290598
109.38715 1533.6495 751 4290421670
110.34863 1533.6146 750 4290092705
111.48624 1533.6146 750 4290619299
112.62386 1533.6146 750 4290750629
113.76147 1533.6146 750 4290619047
114.89909 1533.6146 750 4290619047
115.84954 1533.5798 749 4290817196
116.79633 1533.5449 748 4291211954
117.54862 1533.4752 746 4291607725
118.48624 1533.4403 745 4291739311
119.61468 1533.4403 745 4291476407
120.54679 1533.4055 744 4291871165
121.87156 1533.4403 745 4291806914
123 1533.4403 745 4291938501
124.12844 1533.4403 745 4291871944
125.05321 1533.4055 744 4291871944
-28.119267 1532.2458 743 4294965493
-26.994495 1532.2458 743 4294964976
-25.827522 1532.2129 742 4294965748
-24.744955 1532.2458 743 4294964971
-23.620184 1532.2458 743 4294966256
-22.495413 1532.2458 743 4294966778
-21.370642 1532.2458 743 4294966007
-20.311926 1532.3119 745 4294767340
-19.277063 1532.411 748 4294175203
-18.231194 1532.5101 751 4294305758
-17.091743 1532.5101 751 4294964973
-15.952293 1532.5101 751 4294967293
-14.812844 1532.5101 751 4294967295
-13.673394 1532.5101 751 4294967295
-12.554129 1532.5431 752 4294967295
-11.412844 1532.5431 752 4294967295
-10.255046 1532.5101 751 4294967295
-9.1302748 1532.5431 752 4294967295
-8.014679 1532.6091 754 4294967295
-6.880734 1532.6422 755 4294967295
-5.7339449 1532.6422 755 4294967295
-4.5871558 1532.6422 755 4294967295
-3.4513762 1532.7083 757 4294967295
-2.3009174 1532.7083 757 4294967295
-1.1504587 1532.7083 757 4294967295
0 1532.6422 755 4294967295
1.1449541 1532.6091 754 4294967295
2.2935779 1532.6422 755 4294967295
91.743118 1532.6422 755 4288323276
93.187157 1532.7083 757 4289178329
94.337616 1532.7083 757 4289770709
