# .PCD v0.7 - Point Cloud Data file format
VERSION 0.7
FIELDS x y z rgb
SIZE 4 4 4 4
TYPE F F F U
COUNT 1 1 1 1
WIDTH 1359
HEIGHT 1
VIEWPOINT 0 0 0 1 0 0 0
POINTS 1359
DATA ascii
114.11376 1642.2385 806 4291165951
115.35413 1642.2385 806 4291165951
116.42202 1642.0459 805 4291166207
117.66055 1642.0459 805 4291362815
118.89909 1642.0459 805 4291690495
120.13761 1642.0459 805 4291690495
121.37614 1642.0459 805 4291558911
122.61468 1642.0459 805 4291624703
-38.565136 1641.3799 808 4282061845
-37.321102 1641.3799 808 4282391842
-36.183487 1641.7615 810 4282457635
-34.93578 1641.7615 810 4282391842
-33.688072 1641.7615 810 4282523428
-32.535778 1642.1431 812 4282196260
-31.284403 1642.1431 812 4282328102
-30.033028 1642.1431 812 4282265139
-28.781651 1642.1431 812 4282265139
-27.570642 1642.334 813 4281475674
-26.31743 1642.334 813 4278779953
-25.06422 1642.334 813 4280090624
-23.845871 1642.5248 814 4280745984
-22.590826 1642.5248 814 4281533189
-21.335779 1642.5248 814 4281598983
-20.13945 1642.9064 816 4281205267
-18.880733 1642.9064 816 4281271317
-17.647707 1643.0973 817 4281009685
-16.411009 1643.2881 818 4281009685
-15.148623 1643.2881 818 4281009685
-13.926605 1643.6697 820 4280812562
-12.678899 1643.8606 821 4280878603
-11.444036 1644.2422 823 4280878603
-10.187156 1644.433 824 4280879107
-8.9394493 1644.8147 826 4280879107
-7.6733947 1645.0055 827 4281010187
-6.4036698 1645.1963 828 4280813064
-5.1376147 1645.578 830 4280811790
-3.8587155 1645.7688 831 4281009169
-2.5798166 1646.1504 833 4280813064
-1.2899083 1646.1504 833 4280878857
0 1646.3413 834 4280157710
1.2899083 1646.1504 833 4280157710
2.5834863 1646.3413 834 4280157710
3.8752294 1646.3413 834 4280026124
5.1669726 1646.3413 834 4280025610
6.4862385 1646.9138 837 4280091404
7.7834864 1646.9138 837 4279698956
9.0807343 1646.9138 837 4279633162
10.39266 1647.1046 838 4279894272
11.691743 1647.1046 838 4279960065
12.990826 1647.1046 838 4280483841
14.330276 1647.4862 840 4280221696
15.633027 1647.4862 840 4279697414
16.93578 1647.4862 840 4279631877
18.238533 1647.4862 840 4279304704
19.541285 1647.4862 840 4279370496
20.844036 1647.4862 840 4279238661
22.14679 1647.4862 840 4279238661
23.482569 1647.677 841 4279828487
24.787155 1647.677 841 4279566339
62.620182 1647.677 841 4278190080
63.92477 1647.677 841 4278190080
65.229355 1647.677 841 4278452224
66.533943 1647.677 841 4278517760
67.838531 1647.677 841 4278714371
69.14312 1647.677 841 4278714371
70.348625 1647.4862 840 4278779904
71.651375 1647.4862 840 4278910976
72.954132 1647.4862 840 4278910982
74.047707 1647.1046 838 4278910982
75.346786 1647.1046 838 4278910982
76.537613 1646.9138 837 4279173130
77.834862 1646.9138 837 4279435276
79.02018 1646.7229 836 4279763986
80.315598 1646.7229 836 4280091917
81.379814 1646.3413 834 4280091917
82.554131 1646.1504 833 4280812560
83.84404 1646.1504 833 4281141525
85.133942 1646.1504 833 4281273626
86.423851 1646.1504 833 4281273626
87.464218 1645.7688 831 4281272863
88.623856 1645.578 830 4281272863
89.908257 1645.578 830 4278518016
90.932114 1645.1963 828 4278190080
92.212845 1645.1963 828 4278193664
93.359634 1645.0055 827 4285106022
94.502754 1644.8147 826 4289379812
95.366974 1644.2422 823 4292274687
96.638535 1644.2422 823 4293328895
97.910095 1644.2422 823 4292803583
98.895416 1643.8606 821 4291821567
100.01835 1643.6697 820 4291690495
100.99083 1643.2881 818 4291559423
102.10458 1643.0973 817 4291493887
103.36514 1643.0973 817 4291559423
104.4734 1642.9064 816 4291624959
105.42385 1642.5248 814 4291427839
106.36697 1642.1431 812 4291690495
107.61835 1642.1431 812 4291821567
108.55046 1641.7615 810 4291690495
109.79816 1641.7615 810 4291165695
110.88257 1641.5707 809 4291428351
111.9633 1641.3799 808 4291165695
112.8734 1640.9982 806 4291231487
114.11376 1640.9982 806 4291034879
115.35413 1640.9982 806 4290969087
116.42202 1640.8074 805 4290969599
117.66055 1640.8074 805 4291297279
118.72294 1640.6165 804 4291756031
119.95963 1640.6165 804 4291624959
121.19633 1640.6165 804 4291755519
122.43303 1640.6165 804 4291821311
123.30275 1640.2349 802 4291428351
124.53578 1640.2349 802 4291296767
-38.565136 1640.1357 808 4282064914
-37.321102 1640.1357 808 4282784797
-36.130276 1640.3247 809 4282784797
-34.884403 1640.3247 809 4282784547
-33.638531 1640.3247 809 4282850340
-32.440369 1640.5138 810 4282391842
-31.192661 1640.5138 810 4281931291
-30.033028 1640.8917 812 4281537566
-28.781651 1640.8917 812 4280682257
-27.530275 1640.8917 812 4280615168
-26.31743 1641.0807 813 4281075717
-25.06422 1641.0807 813 4281339668
-23.845871 1641.2698 814 4280747530
-22.590826 1641.2698 814 4280877056
-21.335779 1641.2698 814 4281139713
-20.13945 1641.6477 816 4280878353
-18.880733 1641.6477 816 4280878353
-17.647707 1641.8367 817 4281205771
-16.411009 1642.0256 818 4281271565
-15.19266 1642.4037 820 4281010187
-13.946789 1642.5927 821 4280813064
-12.715596 1642.9707 823 4281140226
-11.46055 1643.1597 824 4281008640
-10.231193 1643.7266 827 4280615168
-8.9651375 1643.9156 828 4280681216
-7.6844039 1643.9156 828 4280680709
-6.4220185 1644.2936 830 4280680709
-5.1449542 1644.4825 831 4280812294
-3.8697248 1644.8606 833 4280812294
-2.5798166 1644.8606 833 4280158464
-1.2899083 1644.8606 833 4280092672
0 1645.0496 834 4280157710
1.2899083 1644.8606 833 4280223503
2.5834863 1645.0496 834 4280680709
3.8862386 1645.4275 836 4280614916
5.1816516 1645.4275 836 4279959561
6.4862385 1645.6165 837 4279959561
7.7944956 1645.8055 838 4280025107
9.0935783 1645.8055 838 4280025107
10.39266 1645.8055 838 4279894272
11.691743 1645.8055 838 4280025858
12.990826 1645.8055 838 4280483841
14.330276 1646.1835 840 4280221696
15.633027 1646.1835 840 4279828487
16.93578 1646.1835 840 4279828487
18.238533 1646.1835 840 4279697414
72.954132 1646.1835 840 4278714371
74.256882 1646.1835 840 4278714371
75.346786 1645.8055 838 4278714371
76.645874 1645.8055 838 4278845445
77.944954 1645.8055 838 4279304199
79.132111 1645.6165 837 4279369736
80.429359 1645.6165 837 4279631875
81.611008 1645.4275 836 4280025608
82.671562 1645.0496 834 4280289800
83.963303 1645.0496 834 4280355593
85.255043 1645.0496 834 4280354842
86.423851 1644.8606 833 4280749599
87.71376 1644.8606 833 4281404961
89.00367 1644.8606 833 4281733925
89.908257 1644.2936 830 4280950306
91.192657 1644.2936 830 4279568653
92.212845 1643.9156 828 4278190080
93.493576 1643.9156 828 4278190080
94.638535 1643.7266 827 4278863380
95.779816 1643.5376 826 4285311094
96.777985 1643.1597 824 4290040319
97.910095 1642.9707 823 4293000959
99.181648 1642.9707 823 4293918719
100.1633 1642.5927 821 4293328895
101.2844 1642.4037 820 4292149247
102.25321 1642.0256 818 4292411391
103.36514 1641.8367 817 4292018175
104.4734 1641.6477 816 4292018175
105.42385 1641.2698 814 4291952639
106.52293 1641.0807 813 4291624959
107.61835 1640.8917 812 4291493887
108.55046 1640.5138 810 4291428351
109.79816 1640.5138 810 4291296511
110.88257 1640.3247 809 4291559423
111.9633 1640.1357 808 4291624703
112.8734 1639.7578 806 4291821567
114.11376 1639.7578 806 4291428351
115.35413 1639.7578 806 4291428351
116.42202 1639.5688 805 4291428351
117.66055 1639.5688 805 4291493887
118.72294 1639.3798 804 4291297279
119.95963 1639.3798 804 4291231743
121.19633 1639.3798 804 4291755519
122.43303 1639.3798 804 4291952639
123.30275 1639.0018 802 4291690495
124.35046 1638.8129 801 4291559423
125.58165 1638.8129 801 4291166207
-39.809174 1638.8917 808 4282064410
-38.565136 1638.8917 808 4282261789
-37.321102 1638.8917 808 4282850860
-36.077065 1638.8917 808 4283048239
-34.833027 1638.8917 808 4282784547
-33.638531 1639.0789 809 4282521631
-32.392662 1639.0789 809 4282128157
-31.14679 1639.0789 809 4281798935
-29.944954 1639.2661 810 4281666838
-28.697248 1639.2661 810 4281469459
-27.530275 1639.6404 812 4281469713
-26.31743 1639.8275 813 4281666836
-25.06422 1639.8275 813 4281339170
-23.845871 1640.0146 814 4281207327
-22.590826 1640.0146 814 4280813064
-21.335779 1640.0146 814 4280681222
-20.13945 1640.389 816 4280877583
-18.880733 1640.389 816 4281009169
-17.647707 1640.5762 817 4281139978
-16.411009 1640.7633 818 4281139978
-15.258716 1641.6991 823 4281139978
-13.987156 1641.6991 823 4281139978
-12.733945 1641.8862 824 4281140226
-11.493578 1642.2605 826 4281074433
-10.245872 1642.6349 828 4280812294
-8.9908257 1643.0092 830 4280812294
-7.7064219 1643.0092 830 4280680709
-6.4220185 1643.0092 830 4280943880
-5.1449542 1643.1963 831 4280878353
-3.8697248 1643.5707 833 4280812560
-2.5834863 1643.7578 834 4280486923
-1.2917432 1643.7578 834 4280355593
0 1644.1321 836 4280355089
1.2917432 1643.7578 834 4280289296
2.5908258 1644.1321 836 4280812294
3.8917432 1644.3192 837 4280549378
5.1889906 1644.3192 837 4280549378
6.4954128 1644.5065 838 4280549378
7.7944956 1644.5065 838 4280549378
9.0935783 1644.5065 838 4280549378
75.346786 1644.5065 838 4278386688
76.645874 1644.5065 838 4278452224
77.944954 1644.5065 838 4279173125
79.244034 1644.5065 838 4279107588
80.429359 1644.3192 837 4279173120
81.726608 1644.3192 837 4279697413
82.906425 1644.1321 836 4280091404
83.963303 1643.7578 834 4280288526
85.255043 1643.7578 834 4280289296
86.546791 1643.7578 834 4280815640
87.71376 1643.5707 833 4280816667
89.00367 1643.5707 833 4281080095
90.036697 1643.1963 831 4281537566
91.322937 1643.1963 831 4281208602
92.212845 1642.6349 828 4280092672
93.493576 1642.6349 828 4279238656
94.638535 1642.4478 827 4278190080
95.779816 1642.2605 826 4282337337
97.056877 1642.2605 826 4286088100
98.051376 1641.8862 824 4291417076
99.181648 1641.6991 823 4293722111
100.45321 1641.6991 823 4293262335
101.43119 1641.3247 821 4291952639
102.55046 1641.1376 820 4291887103
103.51559 1640.7633 818 4290838527
104.4734 1640.389 816 4291297279
105.42385 1640.0146 814 4291690495
106.52293 1639.8275 813 4291493887
107.61835 1639.6404 812 4291100671
108.86973 1639.6404 812 4291100671
109.79816 1639.2661 810 4290837247
110.88257 1639.0789 809 4291166207
112.12844 1639.0789 809 4291558655
113.20734 1638.8917 808 4291821567
114.11376 1638.5175 806 4291493887
115.35413 1638.5175 806 4291559423
116.42202 1638.3303 805 4291690495
117.48624 1638.1431 804 4291559423
118.72294 1638.1431 804 4291034879
119.95963 1638.1431 804 4291231743
120.8367 1637.7688 802 4291624959
122.06973 1637.7688 802 4291690495
123.11926 1637.5817 801 4291559423
124.35046 1637.5817 801 4291493887
125.76881 1637.7688 802 4291297279
127.00183 1637.7688 802 4291362815
-41.053211 1637.6477 808 4282261789
-39.809174 1637.6477 808 4282457635
-38.565136 1637.6477 808 4282523428
-37.321102 1637.6477 808 4282654512
-36.077065 1637.6477 808 4282588719
-34.833027 1637.6477 808 4282128670
-33.588989 1637.6477 808 4281799705
-32.344955 1637.6477 808 4281472023
-31.14679 1637.833 809 4281406230
-29.900917 1637.833 809 4281208081
-28.655046 1637.833 809 4281208081
-27.449541 1638.0183 810 4281339170
-26.278898 1638.389 812 4281339170
-25.06422 1638.5743 813 4281470754
-23.845871 1638.7596 814 4281339168
-22.656881 1639.1302 816 4281075228
-21.398165 1639.1302 816 4280878106
-20.13945 1639.1302 816 4280878353
-18.908257 1639.3156 817 4280878353
-17.673395 1639.501 818 4280747271
-16.482569 1640.0569 821 4280747271
-15.280734 1640.6128 824 4281074185
-14.007339 1640.6128 824 4281139978
-12.770642 1640.9835 826 4280812294
-11.510092 1641.1688 827 4280943880
-10.245872 1641.3541 828 4280877583
-8.9908257 1641.7247 830 4280877583
-7.7174311 1641.9102 831 4280877583
-6.4495411 1642.2808 833 4281009169
-5.1596332 1642.2808 833 4280878353
-3.8752294 1642.4661 834 4280812560
-2.5834863 1642.4661 834 4280355089
-1.2954129 1642.8367 836 4280355089
0 1642.8367 836 4280289296
1.2954129 1642.8367 836 4280157710
2.5944953 1643.022 837 4280680709
3.8972478 1643.2073 838 4280549378
5.1963301 1643.2073 838 4280483841
79.244034 1643.2073 838 4278517761
80.543121 1643.2073 838 4279107588
81.842201 1643.2073 838 4279173125
83.023849 1643.022 837 4279631877
84.201836 1642.8367 836 4279959561
85.255043 1642.4661 834 4280092165
86.546791 1642.4661 834 4280552716
87.838531 1642.4661 834 4280553992
89.00367 1642.2808 833 4280685321
90.293579 1642.2808 833 4280750110
91.322937 1641.9102 831 4280881697
92.609177 1641.9102 831 4280882210
93.493576 1641.3541 828 4280421659
94.774315 1641.3541 828 4278321164
95.917435 1641.1688 827 4278190080
97.196327 1641.1688 827 4278196224
98.333946 1640.9835 826 4282477889
99.324768 1640.6128 824 4288067030
100.45321 1640.4275 823 4292672511
101.72477 1640.4275 823 4293328895
102.69908 1640.0569 821 4293197823
103.51559 1639.501 818 4291821567
104.62569 1639.3156 817 4291952639
105.73211 1639.1302 816 4291624959
106.6789 1638.7596 814 4291559423
107.61835 1638.389 812 4291428351
108.86973 1638.389 812 4291493887
109.79816 1638.0183 810 4291099903
111.04587 1638.0183 810 4291231487
112.12844 1637.833 809 4291690495
113.20734 1637.6477 808 4291821567
114.11376 1637.2771 806 4291690495
115.18349 1637.0918 805 4291756031
116.42202 1637.0918 805 4291690495
117.48624 1636.9064 804 4291952639
118.37064 1636.5358 802 4291428351
119.60367 1636.5358 802 4291493887
120.65688 1636.3505 801 4291690495
122.06973 1636.5358 802 4291887103
123.11926 1636.3505 801 4291428351
124.35046 1636.3505 801 4291362559
125.58165 1636.3505 801 4291297279
126.81284 1636.3505 801 4291756031
-42.297249 1636.4037 808 4282260256
-41.053211 1636.4037 808 4282260256
-39.691742 1636.0367 806 4282260762
-38.565136 1636.4037 808 4282194713
-37.321102 1636.4037 808 4282325029
-36.077065 1636.4037 808 4282259236
-34.833027 1636.4037 808 4281669403
-33.588989 1636.4037 808 4281472023
-32.344955 1636.4037 808 4281340172
-31.100918 1636.4037 808 4281274378
-29.85688 1636.4037 808 4281208320
-28.655046 1636.5872 809 4281142528
-27.409174 1636.5872 809 4281273874
-26.31743 1637.321 813 4282392612
-25.06422 1637.321 813 4282851416
-23.915596 1637.8716 816 4282061901
-22.656881 1637.8716 816 4281075478
-21.398165 1637.8716 816 4281009685
-20.168808 1638.0551 817 4281009685
-18.908257 1638.0551 817 4280878355
-17.724771 1638.6055 820 4280747271
-16.530275 1639.156 823 4280747271
-15.280734 1639.3395 824 4280878603
-14.047707 1639.7064 826 4280681224
-12.80734 1640.0734 828 4280615680
-11.559633 1640.4404 830 4280878592
-10.275229 1640.4404 830 4280813064
-9.0036697 1640.6239 831 4280813064
-7.7174311 1640.6239 831 4280878603
-6.4587154 1641.1743 834 4280878603
-5.1669726 1641.1743 834 4280355089
-3.8752294 1641.1743 834 4280223503
-2.5908258 1641.5413 836 4280355089
-1.2954129 1641.5413 836 4280486675
0 1641.7247 837 4280486675
1.2972476 1641.7247 837 4280355089
84.321098 1641.7247 837 4278714373
85.618347 1641.7247 837 4279173123
86.792664 1641.5413 836 4279698956
87.838531 1641.1743 834 4280224007
89.130272 1641.1743 834 4280486923
90.293579 1640.9908 833 4280553238
91.583488 1640.9908 833 4280750360
92.609177 1640.6239 831 4281404961
93.761467 1640.4404 830 4281404961
95.045868 1640.4404 830 4280878355
96.055046 1640.0734 828 4280352779
97.196327 1639.8899 827 4278191104
98.475227 1639.8899 827 4279245571
99.611008 1639.7064 826 4282209865
100.59817 1639.3395 824 4289447095
101.72477 1639.156 823 4293785855
102.69908 1638.7889 821 4293588735
103.81651 1638.6055 820 4292345855
104.77798 1638.2385 818 4292280319
105.88624 1638.0551 817 4291756031
106.99083 1637.8716 816 4291559423
107.77615 1637.321 813 4291034879
108.86973 1637.1376 812 4291231743
110.1211 1637.1376 812 4291034879
111.04587 1636.7706 810 4291231743
112.29358 1636.7706 810 4291493887
113.20734 1636.4037 808 4291559423
114.11376 1636.0367 806 4291821567
115.18349 1635.8533 805 4291756031
116.42202 1635.8533 805 4291559423
117.48624 1635.6697 804 4291756031
118.37064 1635.3027 802 4291166207
119.60367 1635.3027 802 4291362815
120.65688 1635.1193 801 4291690495
121.88808 1635.1193 801 4291821567
123.11926 1635.1193 801 4291166207
124.35046 1635.1193 801 4291231743
125.58165 1635.1193 801 4291231743
126.62386 1634.9358 800 4291624959
127.85321 1634.9358 800 4292083711
129.08257 1634.9358 800 4291887103
-43.348625 1634.6146 805 4282064914
-42.110092 1634.6146 805 4282391842
-40.93211 1634.7964 806 4282391842
-39.691742 1634.7964 806 4282587676
-38.451378 1634.7964 806 4282455834
-37.21101 1634.7964 806 4281930273
-35.970642 1634.7964 806 4281798687
-34.833027 1635.1597 808 4281799176
-33.588989 1635.1597 808 4281667589
-32.344955 1635.1597 808 4281274628
-31.100918 1635.1597 808 4280945664
-29.900917 1635.3413 809 4281011456
-28.655046 1635.3413 809 4280814336
-27.449541 1635.5229 810 4282062614
-26.278898 1635.8862 812 4285812815
-25.06422 1636.0679 813 4284697193
-23.915596 1636.6128 816 4281407543
-22.656881 1636.6128 816 4280747271
-21.429358 1636.7944 817 4281207566
-20.168808 1636.7944 817 4281075982
-18.990826 1637.3395 820 4281010189
-17.801834 1637.8844 823 4281073681
-16.554129 1638.066 824 4281139474
-15.346789 1638.611 827 4281139978
-14.088074 1638.7927 828 4280942599
-12.844037 1639.156 830 4280484352
-11.576147 1639.3376 831 4280681728
-10.289908 1639.3376 831 4280813568
-9.0293579 1639.7009 833 4280813568
-7.7504587 1639.8826 834 4281010187
-6.4587154 1639.8826 834 4281010187
-5.1816516 1640.2458 836 4280943128
-3.8862386 1640.2458 836 4281271837
88.088074 1640.2458 836 4279369991
89.383484 1640.2458 836 4279764749
90.42202 1639.8826 834 4280289296
91.71376 1639.8826 834 4280486675
92.873398 1639.7009 833 4281206814
93.895416 1639.3376 831 4281469986
95.181648 1639.3376 831 4281339170
96.330276 1639.156 830 4281207327
97.335777 1638.7927 828 4280555035
98.475227 1638.611 827 4279107589
99.754128 1638.611 827 4278197760
100.88808 1638.4293 826 4281293097
101.87156 1638.066 824 4288000455
102.99633 1637.8844 823 4292803327
103.96697 1637.5211 821 4293525503
105.08257 1637.3395 820 4293263359
105.88624 1636.7944 817 4292018175
106.99083 1636.6128 816 4291821567
107.93394 1636.2495 814 4291231743
109.02936 1636.0679 813 4291493887
110.1211 1635.8862 812 4291690495
111.37247 1635.8862 812 4291887103
112.29358 1635.5229 810 4291821567
113.54128 1635.5229 810 4291821567
114.45138 1635.1597 808 4292018175
115.35413 1634.7964 806 4292149247
116.42202 1634.6146 805 4292018175
117.48624 1634.433 804 4292018175
118.37064 1634.0697 802 4291428351
119.60367 1634.0697 802 4291559423
120.65688 1633.8881 801 4291952639
121.88808 1633.8881 801 4292083711
123.11926 1633.8881 801 4291428351
124.16514 1633.7064 800 4291559423
125.39449 1633.7064 800 4291428351
126.24587 1633.3431 798 4291624959
127.47156 1633.3431 798 4291756031
128.69725 1633.3431 798 4291559423
129.92294 1633.3431 798 4291428351
-43.284405 1633.1963 804 4282327582
-42.047707 1633.1963 804 4282521883
-40.871559 1633.3761 805 4282653470
-39.633026 1633.3761 805 4282587424
-38.394497 1633.3761 805 4282126873
-37.21101 1633.5559 806 4281798424
-35.970642 1633.5559 806 4281666838
-34.730274 1633.5559 806 4281340172
-33.588989 1633.9156 808 4281405965
-32.344955 1633.9156 808 4281208835
-31.100918 1633.9156 808 4281077506
-29.85688 1633.9156 808 4281404418
-28.655046 1634.0955 809 4281404418
-27.449541 1634.2753 810 4282261789
-26.31743 1634.8147 813 4284630337
-25.06422 1634.8147 813 4283844455
-23.915596 1635.3541 816 4280752441
-22.689909 1635.5339 817 4281075478
-21.46055 1635.7137 818 4281141271
-20.25688 1636.0734 820 4281075478
-19.073395 1636.6128 823 4281009685
-17.878899 1637.1523 826 4281271565
-16.625689 1637.3322 827 4281468943
-15.368808 1637.512 828 4281469193
-14.12844 1637.8716 830 4281271815
-12.844037 1637.8716 830 4280880128
-11.576147 1638.0514 831 4281011456
-10.319266 1638.411 833 4281076230
-9.042202 1638.5908 834 4281076230
-7.7504587 1638.5908 834 4281141271
90.42202 1638.5908 834 4279697939
91.71376 1638.5908 834 4279961110
92.873398 1638.411 833 4281009435
94.1633 1638.411 833 4281272863
95.453209 1638.411 833 4281339170
96.467888 1638.0514 831 4281207327
97.614677 1637.8716 830 4281600538
98.616516 1637.512 828 4281863967
99.754128 1637.3322 827 4278191104
100.88808 1637.1523 826 4279180291
101.87156 1636.7927 824 4281816388
102.99633 1636.6128 823 4289250997
103.96697 1636.2532 821 4293458943
105.08257 1636.0734 820 4293590527
105.88624 1635.5339 817 4292607999
106.99083 1635.3541 816 4291952639
107.93394 1634.9945 814 4291428351
109.02936 1634.8147 813 4291690495
110.28257 1634.8147 813 4291821567
111.37247 1634.6349 812 4291821567
112.62386 1634.6349 812 4291821567
113.54128 1634.2753 810 4291690495
114.45138 1633.9156 808 4291361023
115.35413 1633.5559 806 4291887103
116.42202 1633.3761 805 4291756031
117.48624 1633.1963 804 4291821567
118.37064 1632.8367 802 4291428351
119.60367 1632.8367 802 4291690495
120.65688 1632.6569 801 4292083711
121.88808 1632.6569 801 4292083711
122.93578 1632.4771 800 4291034879
124.16514 1632.4771 800 4291034879
125.02018 1632.1174 798 4291428351
126.24587 1632.1174 798 4291690495
127.47156 1632.1174 798 4291821567
128.50459 1631.9376 797 4291690495
129.14496 1631.3982 794 4291690495
130.3633 1631.3982 794 4291887103
131.38348 1631.2184 793 4291493887
-44.322937 1631.4257 801 4282328102
-43.155964 1631.6036 802 4282196260
-41.922935 1631.6036 802 4282523680
-40.811008 1631.9596 804 4282128922
-39.57431 1631.9596 804 4282389278
-38.337616 1631.9596 804 4282060313
-37.155964 1632.1376 805 4281339420
-35.917431 1632.1376 805 4281273626
-34.730274 1632.3156 806 4281274378
-33.48991 1632.3156 806 4281340172
-32.344955 1632.6715 808 4281208835
-31.100918 1632.6715 808 4281274628
-29.900917 1632.8495 809 4281207568
-28.697248 1633.0275 810 4281536533
-27.530275 1633.3835 812 4282261789
-26.31743 1633.5615 813 4283248684
-25.100918 1633.7395 814 4282986296
-23.915596 1634.0955 816 4280814870
-22.689909 1634.2734 817 4281272863
-21.522936 1634.8074 820 4281272863
-20.344954 1635.3413 823 4280878355
-19.155964 1635.8752 826 4281075478
-17.904587 1636.0532 827 4281076752
-16.649542 1636.2312 828 4281076752
-15.412844 1636.5872 830 4281208072
-14.12844 1636.5872 830 4281208072
-12.862386 1636.7651 831 4281142279
-11.609175 1637.1211 833 4281142279
-10.319266 1637.1211 833 4280878603
-9.042202 1637.2991 834 4280878603
91.71376 1637.2991 834 4279632409
93.005501 1637.2991 834 4280355089
94.1633 1637.1211 833 4280486675
95.453209 1637.1211 833 4281273874
96.467888 1636.7651 831 4281339668
97.754128 1636.7651 831 4281537053
98.899086 1636.5872 830 4281931811
99.897247 1636.2312 828 4280556843
101.03303 1636.0532 827 4278190087
102.16514 1635.8752 826 4278198528
103.14495 1635.5193 824 4281095713
103.96697 1634.9854 821 4287542203
105.08257 1634.8074 820 4292739071
106.04037 1634.4514 818 4293722111
107.14679 1634.2734 817 4293001215
108.24954 1634.0955 816 4291821567
109.18899 1633.7395 814 4291821567
110.28257 1633.5615 813 4291756031
111.53578 1633.5615 813 4292018175
112.62386 1633.3835 812 4291690495
113.54128 1633.0275 810 4291690495
114.45138 1632.6715 808 4291690495
115.35413 1632.3156 806 4291887103
116.42202 1632.1376 805 4292083711
117.48624 1631.9596 804 4292149247
118.37064 1631.6036 802 4291428351
119.60367 1631.6036 802 4291756031
120.65688 1631.4257 801 4292345855
121.88808 1631.4257 801 4292345855
122.93578 1631.2477 800 4291493887
123.79449 1630.8917 798 4291428351
125.02018 1630.8917 798 4291493887
126.05688 1630.7137 797 4291821567
127.0899 1630.5358 796 4292018175
128.31192 1630.5358 796 4291952639
129.53395 1630.5358 796 4291952639
130.3633 1630.1798 794 4291952639
131.58165 1630.1798 794 4291952639
132.8 1630.1798 794 4292083711
134.01834 1630.1798 794 4291297279
-45.554127 1630.1945 801 4282721059
-44.322937 1630.1945 801 4282524461
-43.155964 1630.3706 802 4282392875
-41.922935 1630.3706 802 4282130467
-40.689907 1630.3706 802 4281341207
-39.456882 1630.3706 802 4281732631
-38.337616 1630.7229 804 4281732631
-37.100918 1630.7229 804 4281339668
-35.917431 1630.899 805 4281273874
-34.730274 1631.0752 806 4281273865
-33.48991 1631.0752 806 4281273865
-32.344955 1631.4275 808 4280685321
-31.100918 1631.4275 808 4280487943
-29.900917 1631.6036 809 4280553238
-28.697248 1631.7798 810 4281671462
-27.530275 1632.1321 812 4281871408
-26.31743 1632.3082 813 4282529338
-25.100918 1632.4844 814 4282855248
-23.915596 1632.8367 816 4281013044
-22.722937 1633.189 818 4281207833
-21.554129 1633.7174 821 4281207833
-20.374311 1634.2458 824 4280620048
-19.155964 1634.5981 826 4280685842
-17.930275 1634.9504 828 4280750360
-16.649542 1634.9504 828 4280553238
-15.412844 1635.3027 830 4280816917
-14.148623 1635.4789 831 4280685588
-12.899082 1635.8312 833 4281274378
-11.609175 1635.8312 833 4281274378
95.453209 1635.8312 833 4281141271
96.743118 1635.8312 833 4281470236
97.754128 1635.4789 831 4280816667
98.899086 1635.3027 830 4281277218
99.897247 1634.9504 828 4281931818
101.03303 1634.7743 827 4281208352
102.16514 1634.5981 826 4278191872
103.14495 1634.2458 824 4278324992
104.26789 1634.0697 823 4278996767
105.23486 1633.7174 821 4288141738
106.34863 1633.5413 820 4293131775
107.30275 1633.189 818 4293000191
108.24954 1632.8367 816 4291887103
109.18899 1632.4844 814 4291821567
110.28257 1632.3082 813 4291690495
111.53578 1632.3082 813 4291690495
112.62386 1632.1321 812 4291493887
113.87523 1632.1321 812 4291493887
114.62019 1631.6036 809 4292083711
115.35413 1631.0752 806 4292149247
116.42202 1630.899 805 4291690495
117.48624 1630.7229 804 4291821567
118.37064 1630.3706 802 4291362559
119.42569 1630.1945 801 4291756031
120.65688 1630.1945 801 4292345855
121.70642 1630.0183 800 4292214783
122.93578 1630.0183 800 4291231743
123.79449 1629.666 798 4291297279
124.83303 1629.4899 797 4291690495
126.05688 1629.4899 797 4291821567
127.0899 1629.3137 796 4291756031
128.31192 1629.3137 796 4291690495
129.14496 1628.9614 794 4291821567
130.3633 1628.9614 794 4291756031
131.58165 1628.9614 794 4291493887
132.8 1628.9614 794 4291493887
134.01834 1628.9614 794 4290903807
-46.78532 1628.9633 801 4282064410
-45.554127 1628.9633 801 4282459168
-44.322937 1628.9633 801 4282590003
-43.091743 1628.9633 801 4282260781
-41.86055 1628.9633 801 4281998617
-40.629356 1628.9633 801 4281603859
-39.398167 1628.9633 801 4281472023
-38.223854 1629.1376 802 4281143058
-36.990826 1629.1376 802 4281601042
-35.86422 1629.4862 804 4281469713
-34.730274 1629.8348 806 4281010944
-33.48991 1629.8348 806 4281076736
-32.249542 1629.8348 806 4281075982
-31.100918 1630.1835 808 4281010189
-29.900917 1630.3578 809 4280683561
-28.697248 1630.5321 810 4282197057
-27.530275 1630.8807 812 4282134082
-26.31743 1631.0551 813 4283712858
-25.100918 1631.2294 814 4283118686
-23.950459 1631.7523 817 4281276738
-22.78899 1632.2753 820 4281207568
-21.616514 1632.7982 823 4281536533
-20.433027 1633.321 826 4281339668
-19.21101 1633.6697 828 4281471510
-17.930275 1633.6697 828 4281014302
-16.697248 1634.0183 830 4280816667
-15.434862 1634.1926 831 4281339420
-14.148623 1634.1926 831 4281339420
99.040367 1634.1926 831 4280750864
100.18349 1634.0183 830 4281537566
101.17798 1633.6697 828 4281866275
102.31193 1633.4954 827 4280622886
103.4422 1633.321 826 4278190081
104.26789 1632.7982 823 4278191360
105.23486 1632.4496 821 4283591507
106.34863 1632.2753 820 4288332000
107.30275 1631.9266 818 4292870143
108.40734 1631.7523 817 4293328895
109.50826 1631.578 816 4292673535
110.44404 1631.2294 814 4291690495
111.53578 1631.0551 813 4291690495
112.62386 1630.8807 812 4291493887
113.87523 1630.8807 812 4291428351
114.78899 1630.5321 810 4291821567
115.69541 1630.1835 808 4291821567
116.5945 1629.8348 806 4291952383
117.66055 1629.6605 805 4292149247
118.72294 1629.4862 804 4292083711
119.60367 1629.1376 802 4292083711
120.65688 1628.9633 801 4291756031
121.34312 1628.4404 798 4291690495
122.56881 1628.4404 798 4291493887
123.60918 1628.2661 797 4291559423
124.83303 1628.2661 797 4291690495
125.86789 1628.0918 796 4291690495
127.0899 1628.0918 796 4291559423
127.92661 1627.7432 794 4291559423
129.14496 1627.7432 794 4291690495
130.3633 1627.7432 794 4291559423
131.58165 1627.7432 794 4291493887
132.8 1627.7432 794 4291493887
134.01834 1627.7432 794 4291493887
-48.016514 1627.7321 801 4282130467
-46.78532 1627.7321 801 4282260508
-45.554127 1627.7321 801 4282260508
-44.322937 1627.7321 801 4282064674
-43.091743 1627.7321 801 4281801758
-41.86055 1627.7321 801 4281669403
-40.629356 1627.7321 801 4281669403
-39.398167 1627.7321 801 4281603609
-38.166973 1627.7321 801 4281472023
-36.990826 1627.9045 802 4281798937
-35.86422 1628.2495 804 4281733144
-34.730274 1628.5945 806 4281667086
-33.48991 1628.5945 806 4281206535
-32.344955 1628.9395 808 4281074185
-31.100918 1628.9395 808 4281271565
-29.900917 1629.1119 809 4280749861
-28.697248 1629.2844 810 4282065720
-27.570642 1629.8019 813 4281673532
-26.355963 1629.9744 814 4281870654
-25.21101 1630.4917 817 4282394447
-23.985321 1630.6642 818 4281144637
-22.822018 1631.1816 821 4281471510
-21.647707 1631.6991 824 4281668632
-20.462385 1632.2166 827 4280882460
-19.21101 1632.389 828 4281014302
-17.930275 1632.389 828 4281079344
-16.697248 1632.7339 830 4280815915
-15.434862 1632.9064 831 4281339420
99.040367 1632.9064 831 4280816144
100.32661 1632.9064 831 4281272863
101.17798 1632.389 828 4281272863
102.31193 1632.2166 827 4281339170
103.59083 1632.2166 827 4280746776
104.41835 1631.6991 824 4278190080
105.53945 1631.5266 823 4281480997
106.50275 1631.1816 821 4283266930
107.61468 1631.0092 820 4290503903
108.56514 1630.6642 818 4293656575
109.50826 1630.3192 816 4293197823
110.44404 1629.9744 814 4291690495
111.69908 1629.9744 814 4291559423
112.78899 1629.8019 813 4291493887
113.87523 1629.6294 812 4291428351
114.78899 1629.2844 810 4291887103
115.86606 1629.1119 809 4291821567
116.93945 1628.9395 808 4291689727
117.83486 1628.5945 806 4291952639
118.37064 1627.9045 802 4292149247
119.42569 1627.7321 801 4292214783
120.47707 1627.5596 800 4291952639
121.34312 1627.2147 798 4291887103
122.56881 1627.2147 798 4291559423
123.60918 1627.0422 797 4291559423
124.64587 1626.8698 796 4291690495
125.86789 1626.8698 796 4291756031
126.70826 1626.5248 794 4291493887
127.92661 1626.5248 794 4291690495
129.14496 1626.5248 794 4291887103
130.3633 1626.5248 794 4291821567
131.58165 1626.5248 794 4291428351
132.8 1626.5248 794 4291493887
134.01834 1626.5248 794 4291559423
135.23669 1626.5248 794 4291756031
-48.016514 1626.501 801 4282130203
-46.78532 1626.501 801 4282261012
-45.554127 1626.501 801 4282129170
-44.322937 1626.501 801 4281933072
-43.091743 1626.501 801 4281538570
-41.86055 1626.501 801 4281146652
-40.568806 1626.3303 800 4281146652
-39.339451 1626.3303 800 4281669403
-38.166973 1626.501 801 4281603609
-36.990826 1626.6715 802 4281603359
-35.757797 1626.6715 802 4281669153
-34.678898 1627.1835 805 4281669403
-33.48991 1627.3541 806 4281472023
-32.249542 1627.3541 806 4281864730
-31.100918 1627.6954 808 4281996317
-29.900917 1627.8661 809 4281799217
-28.781651 1628.3779 812 4283115077
-27.61101 1628.7192 814 4282328904
-26.433027 1629.0605 816 4281736767
-25.247707 1629.4019 818 4281671992
-24.055046 1629.7432 820 4280619304
-22.822018 1629.9138 821 4281339420
-21.710093 1630.767 826 4281734177
-20.491743 1631.1083 828 4281339170
-19.21101 1631.1083 828 4281733671
-17.981651 1631.4496 830 4281341507
-16.697248 1631.4496 830 4280946749
101.46789 1631.4496 830 4280683550
102.45872 1631.1083 828 4281537566
103.59083 1630.9376 827 4281537566
104.71927 1630.767 826 4279832352
105.69174 1630.4257 824 4278255625
106.81101 1630.255 823 4278200576
107.77065 1629.9138 821 4285639282
108.88074 1629.7432 820 4291026943
109.66789 1629.2312 817 4293525503
110.76698 1629.0605 816 4293132287
111.69908 1628.7192 814 4292476927
112.78899 1628.5486 813 4291559423
113.87523 1628.3779 812 4291559423
114.78899 1628.0367 810 4291755519
115.86606 1627.8661 809 4291821567
116.93945 1627.6954 808 4291624703
117.83486 1627.3541 806 4291887103
118.72294 1627.0128 804 4292018175
119.60367 1626.6715 802 4292018175
120.47707 1626.3303 800 4291952639
121.34312 1625.989 798 4292214783
122.38532 1625.8184 797 4291952639
123.42385 1625.6477 796 4291952639
124.64587 1625.6477 796 4291887103
125.86789 1625.6477 796 4292149247
126.70826 1625.3064 794 4291952639
127.92661 1625.3064 794 4292149247
129.14496 1625.3064 794 4292018175
130.3633 1625.3064 794 4292018175
131.58165 1625.3064 794 4291493887
132.8 1625.3064 794 4291493887
134.01834 1625.3064 794 4291559423
135.23669 1625.3064 794 4291887103
-49.174313 1625.101 800 4282194463
-47.944954 1625.101 800 4281931291
-46.715595 1625.101 800 4281931275
-45.48624 1625.101 800 4281997324
-44.256882 1625.101 800 4281538570
-43.027523 1625.101 800 4281538570
-41.798164 1625.101 800 4281080859
-40.568806 1625.101 800 4281278494
-39.339451 1625.101 800 4281278494
-38.110092 1625.101 800 4281212445
-36.93578 1625.2698 801 4281866025
-35.757797 1625.4385 802 4281866025
-34.627522 1625.7761 804 4281866781
-33.48991 1626.1138 806 4281800732
-32.249542 1626.1138 806 4281800732
-31.100918 1626.4514 808 4281537816
-29.944954 1626.7889 810 4281996317
-28.781651 1627.1266 812 4285022794
-27.61101 1627.4642 814 4283779433
-26.47156 1627.9707 817 4282858331
-25.247707 1628.1394 818 4281214275
-24.055046 1628.4771 820 4280556089
-22.921101 1629.1523 824 4281669153
-21.741285 1629.6587 827 4281932324
-20.491743 1629.8275 828 4281145889
103.73945 1629.8275 828 4281930010
104.86973 1629.6587 827 4280815904
105.99633 1629.4899 826 4279960595
106.96514 1629.1523 824 4278190080
108.08257 1628.9835 823 4283323469
108.88074 1628.4771 820 4287473587
109.82752 1628.1394 818 4292342012
110.76698 1627.8019 816 4293459967
111.69908 1627.4642 814 4292935679
112.78899 1627.2954 813 4291756031
113.87523 1627.1266 812 4291624959
114.78899 1626.7889 810 4291362047
116.0367 1626.7889 810 4291624959
117.11192 1626.6202 809 4291887103
118.18349 1626.4514 808 4291952639
118.89909 1625.9449 805 4291887103
119.60367 1625.4385 802 4291821567
120.47707 1625.101 800 4291821567
121.34312 1624.7633 798 4291887103
122.20184 1624.4257 796 4292083711
123.42385 1624.4257 796 4292214783
124.64587 1624.4257 796 4292018175
125.48991 1624.0881 794 4291952639
126.70826 1624.0881 794 4291231743
127.92661 1624.0881 794 4291362815
129.14496 1624.0881 794 4291166207
130.16698 1623.9193 793 4291493887
131.38348 1623.9193 793 4291493887
132.60001 1623.9193 793 4291559423
133.81651 1623.9193 793 4291952639
135.03302 1623.9193 793 4292018175
136.04404 1623.7505 792 4291559423
-48.954128 1623.3706 797 4282128157
-47.944954 1623.8716 800 4281996571
-46.715595 1623.8716 800 4281669653
-45.48624 1623.8716 800 4281472273
-44.124771 1623.5376 798 4281406976
-43.027523 1623.8716 800 4281735936
-41.798164 1623.8716 800 4281801238
-40.568806 1623.8716 800 4281801238
-39.339451 1623.8716 800 4281867031
-38.110092 1623.8716 800 4282064410
-36.93578 1624.0386 801 4282129452
-35.704586 1624.0386 801 4281932072
-34.524769 1624.2056 802 4281866781
-33.48991 1624.8734 806 4281866781
-32.344955 1625.2073 808 4282128407
-31.14679 1625.3743 809 4281799185
-29.900917 1625.3743 809 4282918688
-28.823853 1626.0422 813 4285287236
-27.691744 1626.5431 816 4284174192
-26.47156 1626.7101 817 4283384677
-25.247707 1626.8771 818 4281936199
-24.159634 1627.7119 823 4281541441
-23.020184 1628.3798 827 4282196260
-21.772476 1628.5468 828 4281867551
-20.491743 1628.5468 828 4281930273
105.02018 1628.5468 828 4281014052
106.14862 1628.3798 827 4280882210
107.27339 1628.2129 826 4278452237
108.23853 1627.8789 824 4278190080
109.03853 1627.3779 821 4279454768
110.14679 1627.2111 820 4288731581
110.92844 1626.7101 817 4292278527
112.02569 1626.5431 816 4293394431
112.95413 1626.2092 814 4292476927
113.87523 1625.8752 812 4292018175
115.1266 1625.8752 812 4291821567
116.0367 1625.5413 810 4291887103
117.11192 1625.3743 809 4291952639
118.18349 1625.2073 808 4291952639
118.89909 1624.7064 805 4291624959
119.60367 1624.2056 802 4291624959
120.65688 1624.0386 801 4291624959
121.34312 1623.5376 798 4291624959
122.38532 1623.3706 797 4291690495
123.42385 1623.2036 796 4291887103
124.64587 1623.2036 796 4291690495
125.48991 1622.8698 794 4291559423
126.70826 1622.8698 794 4291887103
127.73395 1622.7028 793 4292083711
128.95045 1622.7028 793 4291952639
130.16698 1622.7028 793 4292345855
131.18532 1622.5358 792 4291690495
132.39999 1622.5358 792 4291690495
133.81651 1622.7028 793 4291952639
135.03302 1622.7028 793 4291952639
136.04404 1622.5358 792 4291887103
-48.954128 1622.1467 797 4282259738
-47.801834 1622.3119 798 4282062616
-46.576145 1622.3119 798 4281801486
-45.35046 1622.3119 798 4281406728
-44.124771 1622.3119 798 4281406215
-42.899082 1622.3119 798 4281735179
-41.673393 1622.3119 798 4281669403
-40.447708 1622.3119 798 4281603609
-39.222019 1622.3119 798 4281931275
-37.99633 1622.3119 798 4282260240
-36.880733 1622.6422 800 4282259236
-35.704586 1622.8074 801 4282062114
-34.524769 1622.9725 802 4281603859
-33.440369 1623.4679 805 4281669653
-32.249542 1623.6331 806 4281996067
-31.100918 1623.9633 808 4282127909
-29.900917 1624.1284 809 4282858040
-28.823853 1624.7889 813 4284173899
-27.732111 1625.4496 817 4283124080
-26.510092 1625.6146 818 4282268771
-25.3211 1625.9449 820 4281476148
-24.194496 1626.6055 824 4281476148
-23.020184 1627.101 827 4281931818
-21.772476 1627.2661 828 4281931818
106.14862 1627.101 827 4281409060
107.27339 1626.9358 826 4280685842
108.23853 1626.6055 824 4278583296
109.35413 1626.4404 823 4278190080
110.14679 1625.9449 820 4286548608
111.0899 1625.6146 818 4290435583
112.02569 1625.2844 816 4293197823
112.95413 1624.9541 814 4292607999
113.87523 1624.6239 812 4291952639
115.1266 1624.6239 812 4291952639
116.0367 1624.2936 810 4291952639
117.11192 1624.1284 809 4292149247
118.3578 1624.1284 809 4292083711
119.07523 1623.6331 806 4291362559
119.95963 1623.3027 804 4291428351
121.19633 1623.3027 804 4291428351
121.34312 1622.3119 798 4291559423
122.38532 1622.1467 797 4291428351
123.42385 1621.9817 796 4291493887
124.27156 1621.6514 794 4291297279
125.48991 1621.6514 794 4291297279
126.51743 1621.4862 793 4292018175
127.73395 1621.4862 793 4292214783
128.75597 1621.321 792 4291428351
129.97064 1621.321 792 4291690495
131.18532 1621.321 792 4291887103
132.39999 1621.321 792 4291821567
133.61469 1621.321 792 4291952639
134.82936 1621.321 792 4292018175
135.83853 1621.156 791 4292018175
137.05138 1621.156 791 4291821567
-52.546787 1620.7596 796 4282850340
-48.954128 1620.923 797 4282194713
-47.730274 1620.923 797 4282128920
-46.50642 1620.923 797 4281670156
-45.28257 1620.923 797 4281472521
-44.058716 1620.923 797 4281603859
-42.834862 1620.923 797 4281801238
-41.611008 1620.923 797 4281603359
-40.387157 1620.923 797 4281405724
-39.222019 1621.0862 798 4281667589
-37.99633 1621.0862 798 4281930762
-36.880733 1621.4128 800 4281669403
-35.704586 1621.5762 801 4281669403
-34.524769 1621.7395 802 4281538066
-33.390827 1622.066 804 4281669653
-32.249542 1622.3927 806 4282127657
-31.100918 1622.7192 808 4281930021
-29.900917 1622.8826 809 4283183629
-28.823853 1623.5358 813 4284960040
-27.732111 1624.189 817 4283648083
-26.587156 1624.679 820 4280621604
-25.357798 1624.8422 821 4280878355
-24.299082 1625.822 827 4281470236
108.55046 1625.6587 826 4280682257
109.35413 1625.1688 823 4278190080
110.30642 1624.8422 821 4279967774
111.0899 1624.3523 818 4283730604
112.18899 1624.189 817 4291428095
112.95413 1623.6991 814 4294639615
114.0422 1623.5358 813 4293525503
115.1266 1623.3724 812 4292214783
116.0367 1623.0459 810 4292607999
117.11192 1622.8826 809 4292149247
118.3578 1622.8826 809 4291952383
119.42752 1622.7192 808 4291624959
120.13761 1622.2294 805 4291821567
121.37614 1622.2294 805 4291821567
121.34312 1621.0862 798 4291887103
122.38532 1620.923 797 4291887103
123.42385 1620.7596 796 4291821567
124.27156 1620.433 794 4291428351
125.48991 1620.433 794 4291428351
126.51743 1620.2698 793 4291756031
127.54128 1620.1064 792 4291887103
128.56146 1619.9431 791 4291559423
129.77431 1619.9431 791 4291559423
130.98715 1619.9431 791 4291690495
132.2 1619.9431 791 4291690495
133.00917 1619.6165 789 4291952639
134.62569 1619.9431 791 4292280319
135.83853 1619.9431 791 4291821567
136.6367 1619.6165 789 4291624959
-52.546787 1619.5376 796 4282916389
-51.324772 1619.5376 796 4282523178
-50.102753 1619.5376 796 4282457385
-48.880733 1619.5376 796 4281867551
-47.658714 1619.5376 796 4281735709
-46.436699 1619.5376 796 4281801486
-45.28257 1619.6991 797 4281867279
-44.058716 1619.6991 797 4281867031
-42.834862 1619.6991 797 4281867031
-41.611008 1619.6991 797 4281278494
-40.387157 1619.6991 797 4281015065
-39.222019 1619.8606 798 4281603859
-37.99633 1619.8606 798 4281867031
-36.880733 1620.1835 800 4281801758
-35.757797 1620.5065 802 4281604123
-34.627522 1620.8293 804 4281867551
-33.390827 1620.8293 804 4281998880
-32.249542 1621.1523 806 4282129202
-31.100918 1621.4752 808 4281799980
-29.944954 1621.7982 810 4281075478
-28.823853 1622.2826 813 4282522924
-27.732111 1622.9285 817 4283050556
-26.625689 1623.5743 821 4281471267
-25.541285 1624.3816 826 4281403664
109.35413 1623.8972 823 4280357903
110.30642 1623.5743 821 4278255616
111.41284 1623.4128 820 4279255840
112.18899 1622.9285 817 4290045892
112.95413 1622.4441 814 4293459967
114.0422 1622.2826 813 4293066751
115.1266 1622.1211 812 4291690495
116.0367 1621.7982 810 4292083711
117.11192 1621.6367 809 4292149247
118.3578 1621.6367 809 4291952639
119.42752 1621.4752 808 4291756031
120.3156 1621.1523 806 4291756031
121.37614 1620.9908 805 4291821567
122.61468 1620.9908 805 4291821567
122.38532 1619.6991 797 4291821567
123.42385 1619.5376 796 4291756031
124.27156 1619.2147 794 4290575103
125.48991 1619.2147 794 4291166207
126.51743 1619.0532 793 4291756031
127.54128 1618.8917 792 4291821567
128.56146 1618.7302 791 4291624959
129.77431 1618.7302 791 4291559423
130.59082 1618.4073 789 4291756031
131.8 1618.4073 789 4291756031
132.80734 1618.2458 788 4291952639
134.21835 1618.4073 789 4292018175
135.42752 1618.4073 789 4291624959
136.42935 1618.2458 788 4291559423
-53.526604 1617.8367 793 4282455838
-52.388992 1617.9963 794 4282521631
-51.170643 1617.9963 794 4282259236
-49.952293 1617.9963 794 4282062114
-48.733944 1617.9963 794 4281603859
-47.444038 1617.8367 793 4281801238
-46.297249 1617.9963 794 4281605120
-45.21468 1618.3156 796 4281868033
-43.992661 1618.3156 796 4281800732
-42.6422 1617.9963 794 4282064160
-41.548622 1618.3156 796 4281541410
-40.326607 1618.3156 796 4281541410
-39.163303 1618.4752 797 4281475616
-37.939449 1618.4752 797 4281344287
-36.880733 1618.9541 800 4281408808
-35.757797 1619.2734 802 4281079843
-34.627522 1619.5927 804 4281997865
-33.390827 1619.5927 804 4283576898
-32.249542 1619.9119 806 4283577885
-31.192661 1620.5504 810 4281801474
-30.033028 1620.8698 812 4281338918
-28.950459 1621.5083 816 4280812574
-27.893578 1622.3064 821 4280943616
-26.741285 1622.7853 824 4281469952
110.62569 1622.6257 823 4278648837
111.57431 1622.3064 821 4278190107
112.35229 1621.8275 818 4287402170
113.2844 1621.5083 816 4290371071
114.20918 1621.189 814 4292935679
115.1266 1620.8698 812 4292607999
116.37798 1620.8698 812 4292411391
117.2844 1620.5504 810 4292149247
118.53211 1620.5504 810 4292149247
119.42752 1620.2312 808 4291887103
120.3156 1619.9119 806 4291887103
121.37614 1619.7523 805 4291756031
121.88808 1619.1138 801 4291559423
122.20184 1618.3156 796 4291690495
123.42385 1618.3156 796 4291559423
124.27156 1617.9963 794 4291559423
125.30092 1617.8367 793 4291756031
126.32661 1617.677 792 4291690495
127.34863 1617.5175 791 4291690495
128.56146 1617.5175 791 4291690495
129.38165 1617.1981 789 4291690495
130.59082 1617.1981 789 4291821567
131.60001 1617.0386 788 4291887103
132.80734 1617.0386 788 4292018175
134.21835 1617.1981 789 4292018175
135.22202 1617.0386 788 4292149247
136.42935 1617.0386 788 4292149247
-53.526604 1616.6202 793 4282521631
-52.310093 1616.6202 793 4282521631
-51.093578 1616.6202 793 4281998628
-49.877064 1616.6202 793 4281275162
-48.660549 1616.6202 793 4281340172
-47.444038 1616.6202 793 4282129687
-46.227524 1616.6202 793 4281998867
-45.078899 1616.778 794 4281998867
-43.86055 1616.778 794 4281933072
-42.57798 1616.6202 793 4282327830
-41.361469 1616.6202 793 4281674029
-40.205505 1616.778 794 4281608236
-39.104588 1617.0936 796 4281804588
-37.939449 1617.2513 797 4281738539
-36.770641 1617.4092 798 4281343535
-35.757797 1618.0404 802 4281211693
-34.627522 1618.356 804 4281866025
-33.390827 1618.356 804 4283708229
-32.249542 1618.6715 806 4284237666
-31.192661 1619.3027 810 4281343031
-30.209175 1620.2495 816 4281668132
-28.992661 1620.4073 817 4281273374
-27.893578 1621.0386 821 4281074688
-26.741285 1621.512 824 4281929992
110.62569 1621.3541 823 4280156175
111.57431 1621.0386 821 4278190080
112.35229 1620.5652 818 4283454285
113.44954 1620.4073 817 4287212498
114.54312 1620.2495 816 4293066751
115.29541 1619.7761 813 4292739071
116.37798 1619.6184 812 4292280319
117.62936 1619.6184 812 4291428351
118.53211 1619.3027 810 4291493887
119.60367 1619.1449 809 4291624703
120.3156 1618.6715 806 4291952639
121.37614 1618.5138 805 4292018175
121.88808 1617.8826 801 4291887103
122.56881 1617.4092 798 4291624959
123.42385 1617.0936 796 4291756031
124.27156 1616.778 794 4291952639
125.30092 1616.6202 793 4291952639
126.13578 1616.3046 791 4291887103
127.34863 1616.3046 791 4291887103
128.17247 1615.989 789 4291887103
129.18532 1615.8312 788 4292018175
130.39265 1615.8312 788 4292149247
131.39999 1615.6733 787 4292214783
132.6055 1615.6733 787 4292149247
133.811 1615.6733 787 4292214783
135.01651 1615.6733 787 4292214783
136.22202 1615.6733 787 4292149247
137.42752 1615.6733 787 4292018175
138.63303 1615.6733 787 4291952639
-53.526604 1615.4037 793 4282784547
-52.310093 1615.4037 793 4282653218
-51.093578 1615.4037 793 4282063658
-49.877064 1615.4037 793 4281603107
-48.660549 1615.4037 793 4281669403
-47.372478 1615.2477 792 4282064160
-46.157799 1615.2477 792 4282262536
-45.011009 1615.4037 793 4282328586
-43.794495 1615.4037 793 4282393375
-42.57798 1615.4037 793 4282853926
-41.361469 1615.4037 793 4282199846
-40.144955 1615.4037 793 4281805088
-38.987156 1615.5596 794 4281935917
-37.882568 1615.8716 796 4282265139
-36.770641 1616.1835 798 4281737539
-35.757797 1616.8074 802 4281605697
-34.627522 1617.1193 804 4282063408
-33.390827 1617.1193 804 4282326324
-32.249542 1617.4312 806 4282916958
-31.14679 1617.899 809 4281864269
-30.121101 1618.679 814 4281404961
-29.119267 1619.6146 820 4281668132
-27.974312 1620.0825 823 4281865234
111.57431 1619.7706 821 4278321416
112.35229 1619.3027 818 4278190080
113.44954 1619.1467 817 4278210205
114.54312 1618.9908 816 4288806911
115.46422 1618.679 814 4294049791
116.54862 1618.5229 813 4293525503
117.62936 1618.3669 812 4292411391
118.53211 1618.0551 810 4292214783
119.60367 1617.899 809 4291690495
120.67156 1617.7432 808 4292018175
121.37614 1617.2753 805 4292149247
121.88808 1616.6514 801 4292083711
122.56881 1616.1835 798 4291690495
123.42385 1615.8716 796 4292149247
124.27156 1615.5596 794 4292411391
125.30092 1615.4037 793 4292411391
126.32661 1615.2477 792 4291756031
127.34863 1615.0918 791 4291690495
128.17247 1614.7798 789 4292476927
128.989 1614.4679 787 4292607999
130.19449 1614.4679 787 4292476927
131.39999 1614.4679 787 4292607999
132.6055 1614.4679 787 4292149247
133.40367 1614.156 785 4292149247
135.01651 1614.4679 787 4291821567
136.22202 1614.4679 787 4291756031
137.00917 1614.156 785 4291821567
138.21101 1614.156 785 4291756031
-53.445873 1614.0331 792 4282196260
-52.231194 1614.0331 792 4282064674
-51.016514 1614.0331 792 4281998880
-49.801834 1614.0331 792 4281998880
-48.587154 1614.0331 792 4282064660
-47.372478 1614.0331 792 4282064660
-46.157799 1614.0331 792 4282328586
-44.943119 1614.0331 792 4282394379
-43.728439 1614.0331 792 4282459168
-42.51376 1614.0331 792 4282788133
-41.299084 1614.0331 792 4282198068
-40.084404 1614.0331 792 4281935152
-38.92844 1614.1871 793 4282262053
-37.882568 1614.6495 796 4282328102
-36.770641 1614.9578 798 4282392623
-35.757797 1615.5743 802 4282260781
-34.678898 1616.0367 805 4282324779
-33.440369 1616.0367 805 4282127657
-32.249542 1616.1908 806 4282322760
-31.100918 1616.499 808 4281928003
