# .PCD v0.7 - Point Cloud Data file format
VERSION 0.7
FIELDS x y z rgb
SIZE 4 4 4 4
TYPE F F F U
COUNT 1 1 1 1
WIDTH 1379
HEIGHT 1
VIEWPOINT 0 0 0 1 0 0 0
POINTS 1379
DATA ascii
88.088074 1655.7908 836 4278197875
89.130272 1655.3835 834 4283269077
90.42202 1655.3835 834 4287278813
91.583488 1655.1798 833 4289844479
92.873398 1655.1798 833 4291749887
93.895416 1654.7725 831 4291683839
95.181648 1654.7725 831 4290569471
96.330276 1654.5688 830 4289977599
97.614677 1654.5688 830 4288929023
98.616516 1654.1615 828 4288797439
99.897247 1654.1615 828 4288666367
101.17798 1654.1615 828 4288863743
102.31193 1653.9578 827 4288666367
103.59083 1653.9578 827 4288732159
104.71927 1653.7542 826 4288929023
105.69174 1653.3468 824 4288863231
106.96514 1653.3468 824 4288863231
108.08257 1653.1431 823 4288994815
109.35413 1653.1431 823 4288929791
110.62569 1653.1431 823 4288995583
111.89725 1653.1431 823 4288732927
113.16881 1653.1431 823 4288930559
114.11009 1652.7358 821 4289061375
115.37798 1652.7358 821 4288732671
116.64587 1652.7358 821 4288732415
117.91376 1652.7358 821 4288995327
119.00917 1652.5321 820 4289322751
120.27523 1652.5321 820 4289520127
121.54128 1652.5321 820 4289257727
122.80734 1652.5321 820 4289125887
124.07339 1652.5321 820 4288995071
125.33945 1652.5321 820 4288929279
126.60551 1652.5321 820 4288863743
-18.770641 1649.6514 812 4278190146
-17.544954 1649.8533 813 4279107594
-16.291742 1649.8533 813 4280288796
-15.038532 1649.8533 813 4280750110
-13.805505 1650.0551 814 4280486939
-12.550459 1650.0551 814 4280942592
-11.295413 1650.0551 814 4281731849
-10.069725 1650.4587 816 4279701023
-8.8110094 1650.4587 816 4283122002
-7.5522938 1650.4587 816 4284833151
-6.3027525 1650.6605 817 4285425288
-5.042202 1650.6605 817 4286806689
-3.7816513 1650.6605 817 4287727791
-2.5247707 1650.8624 818 4287273123
-1.2623854 1650.8624 818 4285365126
0 1650.6605 817 4278207350
1.2623854 1650.8624 818 4278196299
2.53211 1651.2661 820 4279107584
3.7981651 1651.2661 820 4279042048
5.0715594 1651.4679 821 4278779904
6.3577981 1651.8716 823 4278910977
7.6293578 1651.8716 823 4279566336
8.9137611 1652.0734 824 4280026112
10.187156 1652.0734 824 4280483841
11.493578 1652.4771 826 4280418304
12.788991 1652.679 827 4280352768
14.088074 1652.8807 828 4280549376
15.368808 1652.8807 828 4280614932
16.649542 1652.8807 828 4280614932
17.981651 1653.2844 830 4279828487
19.293577 1653.4862 831 4279828487
20.638533 1653.8899 833 4279631872
21.92844 1653.8899 833 4279697408
23.251375 1654.0918 834 4280352772
24.543119 1654.0918 834 4280352772
25.908257 1654.4954 836 4279631872
27.203671 1654.4954 836 4279631872
28.53945 1654.6973 837 4279631872
29.836697 1654.6973 837 4279697408
31.177982 1654.899 838 4279304198
32.477066 1654.899 838 4279369991
33.776146 1654.899 838 4279631872
35.174313 1655.3027 840 4279566336
36.477066 1655.3027 840 4279435265
37.779816 1655.3027 840 4279304192
39.082569 1655.3027 840 4279304192
40.385323 1655.3027 840 4279369728
41.688072 1655.3027 840 4279304192
43.051376 1655.5046 841 4279238656
44.355965 1655.5046 841 4279238656
45.660549 1655.5046 841 4279238656
46.965137 1655.5046 841 4279238656
48.269726 1655.5046 841 4279238656
49.57431 1655.5046 841 4279238656
50.878899 1655.5046 841 4279173120
52.183487 1655.5046 841 4279173120
53.488075 1655.5046 841 4279238656
54.946789 1655.9082 843 4278910976
56.255047 1655.9082 843 4278910976
57.401836 1655.5046 841 4278910976
58.706421 1655.5046 841 4278910976
60.011009 1655.5046 841 4279238656
61.315598 1655.5046 841 4279369728
62.620182 1655.5046 841 4279566336
63.92477 1655.5046 841 4279566336
65.229355 1655.5046 841 4279697408
66.533943 1655.5046 841 4279894528
67.743118 1655.3027 840 4280549378
69.045868 1655.3027 840 4280812294
70.348625 1655.3027 840 4280289800
71.651375 1655.3027 840 4280486923
72.954132 1655.3027 840 4280356107
74.256882 1655.3027 840 4280356107
75.559631 1655.3027 840 4280879616
76.862389 1655.3027 840 4281010944
78.165138 1655.3027 840 4280422150
79.467888 1655.3027 840 4280356357
80.543121 1654.899 838 4280421900
81.842201 1654.899 838 4280421900
83.141281 1654.899 838 4281010437
84.440369 1654.899 838 4280221696
85.618347 1654.6973 837 4278648832
86.915596 1654.6973 837 4278583296
88.212845 1654.6973 837 4278190080
89.383484 1654.4954 836 4280362780
90.42202 1654.0918 834 4283785606
91.71376 1654.0918 834 4287535807
92.873398 1653.8899 833 4288461034
94.1633 1653.8899 833 4290435071
95.181648 1653.4862 831 4289716991
96.467888 1653.4862 831 4289651199
97.614677 1653.2844 830 4289520895
98.899086 1653.2844 830 4289126143
100.18349 1653.2844 830 4288666367
101.17798 1652.8807 828 4288732159
102.45872 1652.8807 828 4288732415
103.59083 1652.679 827 4288863743
104.86973 1652.679 827 4288929279
105.99633 1652.4771 826 4289126399
106.96514 1652.0734 824 4289191935
108.23853 1652.0734 824 4289191935
109.35413 1651.8716 823 4288864767
110.62569 1651.8716 823 4288798975
111.89725 1651.8716 823 4288668671
112.8422 1651.4679 821 4288734463
114.11009 1651.4679 821 4289062143
115.37798 1651.4679 821 4288733183
116.64587 1651.4679 821 4288272639
117.74312 1651.2661 820 4288536063
119.00917 1651.2661 820 4288863231
120.27523 1651.2661 820 4289257983
121.54128 1651.2661 820 4289323519
122.45138 1650.8624 818 4289126143
123.71376 1650.8624 818 4289125887
124.97615 1650.8624 818 4289191679
126.23853 1650.8624 818 4288995583
127.50092 1650.8624 818 4288929791
-20.022018 1648.4 812 4278190111
-18.798164 1648.6 813 4278848819
-17.544954 1648.6 813 4280750110
-16.291742 1648.6 813 4280815904
-15.038532 1648.6 813 4281472023
-13.785321 1648.6 813 4281669403
-12.550459 1648.8 814 4281997865
-11.295413 1648.8 814 4283576898
-10.040367 1648.8 814 4282726966
-8.7853212 1648.8 814 4285227101
-7.5522938 1649.2 816 4284634534
-6.2935781 1649.2 816 4282792330
-5.042202 1649.4 817 4280622418
-3.7816513 1649.4 817 4278583346
-2.5247707 1649.6 818 4278192640
-1.266055 1650 820 4278190592
0 1649.6 818 4278190080
1.266055 1650 820 4278190592
2.53211 1650 820 4280025107
3.7981651 1650 820 4280288022
5.0715594 1650.2 821 4280157710
6.3577981 1650.6 823 4279894538
7.640367 1650.8 824 4279960576
8.9137611 1650.8 824 4279960576
10.216514 1651.2 826 4280614924
11.510092 1651.4 827 4280483849
12.80734 1651.6 828 4280483849
14.088074 1651.6 828 4280549386
15.412844 1652 830 4280614932
16.697248 1652 830 4280483857
18.007339 1652.2 831 4280483849
19.348623 1652.6 833 4280352775
20.638533 1652.6 833 4279697408
21.959633 1652.8 834 4279697408
23.251375 1652.8 834 4279697408
24.612844 1653.2 836 4279697408
25.908257 1653.2 836 4279631872
27.242203 1653.4 837 4279566336
28.579817 1653.6 838 4279435264
29.878899 1653.6 838 4279435264
31.266054 1654 840 4279173123
32.568806 1654 840 4279238661
33.871559 1654 840 4279369728
35.223854 1654.2 841 4279304192
36.528439 1654.2 841 4279369728
37.833027 1654.2 841 4279238656
39.137615 1654.2 841 4279369728
40.442204 1654.2 841 4279369728
41.746788 1654.2 841 4278845440
43.172478 1654.6 843 4278910976
44.480736 1654.6 843 4279238656
45.660549 1654.2 841 4279107584
47.097248 1654.6 843 4279173120
48.405506 1654.6 843 4279238656
49.71376 1654.6 843 4278910976
51.022018 1654.6 843 4278910976
52.403671 1654.8 844 4278910976
53.638531 1654.6 843 4278779904
55.023853 1654.8 844 4278779904
56.333946 1654.8 844 4278779904
57.644035 1654.8 844 4278779908
58.954128 1654.8 844 4278779908
60.264221 1654.8 844 4279173120
61.488075 1654.6 843 4279173120
62.796329 1654.6 843 4279238656
64.104584 1654.6 843 4279173120
65.229355 1654.2 841 4279304192
66.533943 1654.2 841 4279435264
67.838531 1654.2 841 4279697408
69.14312 1654.2 841 4279828480
70.447708 1654.2 841 4279960576
71.651375 1654 840 4279960576
73.056877 1654.2 841 4280158464
74.361465 1654.2 841 4280026880
75.666054 1654.2 841 4280092928
76.862389 1654 840 4280092928
78.165138 1654 840 4280224007
79.467888 1654 840 4280289800
80.770645 1654 840 4280422150
82.073395 1654 840 4280487943
83.141281 1653.6 838 4280685321
84.440369 1653.6 838 4280553992
85.739449 1653.6 838 4280486923
87.038528 1653.6 838 4280026372
88.337616 1653.6 838 4278452229
89.510094 1653.4 837 4278190080
90.807343 1653.4 837 4278190080
91.71376 1652.8 834 4278190080
93.005501 1652.8 834 4278191959
94.1633 1652.6 833 4283920833
95.453209 1652.6 833 4286752984
96.743118 1652.6 833 4289713663
97.754128 1652.2 831 4291816191
99.040367 1652.2 831 4291619071
100.32661 1652.2 831 4290570239
101.46789 1652 830 4290438655
102.45872 1651.6 828 4289586175
103.73945 1651.6 828 4289454591
104.86973 1651.4 827 4288995071
105.99633 1651.2 826 4289192191
107.27339 1651.2 826 4289191935
108.23853 1650.8 824 4289191935
109.51192 1650.8 824 4288995583
110.62569 1650.6 823 4288929791
111.89725 1650.6 823 4288929791
113.16881 1650.6 823 4289061375
114.11009 1650.2 821 4289323519
115.37798 1650.2 821 4289257727
116.64587 1650.2 821 4289192191
117.74312 1650 820 4289258239
119.00917 1650 820 4288929791
120.27523 1650 820 4289127167
121.18899 1649.6 818 4289257727
122.45138 1649.6 818 4289060095
123.71376 1649.6 818 4288995071
124.97615 1649.6 818 4289389823
126.23853 1649.6 818 4288995071
127.50092 1649.6 818 4289126399
128.76331 1649.6 818 4289191679
130.40367 1650 820 4289191679
-21.273394 1647.1487 812 4279894047
-20.022018 1647.1487 812 4280878355
-18.798164 1647.3468 813 4281733664
-17.544954 1647.3468 813 4281014302
-16.267889 1647.1487 812 4281014302
-15.038532 1647.3468 813 4281669403
-13.785321 1647.3468 813 4281866781
-12.53211 1647.3468 813 4281276966
-11.278899 1647.3468 813 4283053634
-10.025688 1647.3468 813 4282073416
-8.7853212 1647.5449 814 4282139209
-7.5302753 1647.5449 814 4282201965
-6.2752295 1647.5449 814 4279767368
-5.0348625 1647.9413 816 4279304230
-3.7816513 1648.1394 817 4278386712
-2.5247707 1648.3376 818 4279369728
-1.266055 1648.7339 820 4279828480
0 1648.3376 818 4280549376
1.266055 1648.7339 820 4280811521
2.5357797 1648.9321 821 4280680709
3.8036697 1648.9321 821 4280614916
5.0862384 1649.3285 823 4280091404
6.3577981 1649.3285 823 4279959561
7.640367 1649.5266 824 4279960065
8.9394493 1649.923 826 4280025858
10.231193 1650.1211 827 4280483849
11.510092 1650.1211 827 4280483849
12.80734 1650.3192 828 4280418311
14.12844 1650.7156 830 4280483848
15.434862 1650.9138 831 4280483855
16.721102 1650.9138 831 4280352781
18.058716 1651.3101 833 4280352772
19.348623 1651.3101 833 4280352772
20.667891 1651.5083 834 4279697408
21.959633 1651.5083 834 4279697408
23.31743 1651.9045 836 4279631875
24.612844 1651.9045 836 4279566337
25.944954 1652.1028 837 4279435264
27.280733 1652.3009 838 4279435264
28.660551 1652.6973 840 4279566336
29.963303 1652.6973 840 4279566336
31.266054 1652.6973 840 4279435264
32.568806 1652.6973 840 4279435264
33.919266 1652.8954 841 4279304192
35.223854 1652.8954 841 4279369728
36.631191 1653.2917 843 4279435265
37.939449 1653.2917 843 4279304192
39.247707 1653.2917 843 4279107586
40.555962 1653.2917 843 4279107586
41.86422 1653.2917 843 4278910976
43.233028 1653.4899 844 4278910976
44.543118 1653.4899 844 4279304192
45.85321 1653.4899 844 4279238656
47.163303 1653.4899 844 4278845440
48.473396 1653.4899 844 4278779904
49.783485 1653.4899 844 4278845440
51.093578 1653.4899 844 4278779904
52.550457 1653.8862 846 4278779904
53.86422 1653.8862 846 4278714368
55.177982 1653.8862 846 4278648832
56.491745 1653.8862 846 4278714368
57.805504 1653.8862 846 4278583305
59.119267 1653.8862 846 4278517767
60.433029 1653.8862 846 4278779904
61.57431 1653.4899 844 4278779904
62.884403 1653.4899 844 4278976512
64.194496 1653.4899 844 4278976512
65.412842 1653.2917 843 4278976512
66.7211 1653.2917 843 4279173120
68.029358 1653.2917 843 4279173120
69.337616 1653.2917 843 4279173120
70.447708 1652.8954 841 4279238656
71.752296 1652.8954 841 4279238656
73.056877 1652.8954 841 4279435264
74.361465 1652.8954 841 4279435264
75.666054 1652.8954 841 4279632384
76.970642 1652.8954 841 4279763968
78.165138 1652.6973 840 4279895042
79.467888 1652.6973 840 4280092165
80.770645 1652.6973 840 4280224007
82.073395 1652.6973 840 4280355593
83.376144 1652.6973 840 4280421396
84.678902 1652.6973 840 4280421396
85.981651 1652.6973 840 4280356107
87.284401 1652.6973 840 4280290313
88.337616 1652.3009 838 4281206275
89.636696 1652.3009 838 4280745984
90.935783 1652.3009 838 4280090624
92.104584 1652.1028 837 4279697408
93.269722 1651.9045 836 4278190080
94.297249 1651.5083 834 4280030737
95.588989 1651.5083 834 4283127924
96.743118 1651.3101 833 4287667897
98.033028 1651.3101 833 4289316345
99.322937 1651.3101 833 4290763775
100.32661 1650.9138 831 4289979647
101.61285 1650.9138 831 4289979647
102.7523 1650.7156 830 4289652735
103.73945 1650.3192 828 4289455103
105.02018 1650.3192 828 4288864767
106.14862 1650.1211 827 4288864767
107.42752 1650.1211 827 4289192191
108.55046 1649.923 826 4289192191
109.51192 1649.5266 824 4289126399
110.78532 1649.5266 824 4288995071
111.89725 1649.3285 823 4289191935
113.16881 1649.3285 823 4289323519
114.11009 1648.9321 821 4289323519
115.37798 1648.9321 821 4289323519
116.47707 1648.7339 820 4289323519
117.74312 1648.7339 820 4289257727
118.66422 1648.3376 818 4288995071
119.92661 1648.3376 818 4289192191
121.18899 1648.3376 818 4289257727
122.45138 1648.3376 818 4289125887
123.71376 1648.3376 818 4288929279
124.97615 1648.3376 818 4288995071
126.23853 1648.3376 818 4288600575
127.3156 1648.1394 817 4288995327
128.57614 1648.1394 817 4289257727
130.02568 1648.3376 818 4289323519
-23.776146 1645.8972 812 4278586414
-22.524771 1645.8972 812 4280815654
-21.273394 1645.8972 812 4280749861
-20.022018 1645.8972 812 4281142279
-18.770641 1645.8972 812 4281668623
-17.519266 1645.8972 812 4281800732
-16.267889 1645.8972 812 4281800732
-15.016514 1645.8972 812 4281866781
-13.785321 1646.0936 813 4281800732
-12.53211 1646.0936 813 4280815904
-11.278899 1646.0936 813 4280684317
-10.025688 1646.0936 813 4280290593
-8.7724771 1646.0936 813 4278845451
-7.5302753 1646.2899 814 4278386688
-6.2752295 1646.2899 814 4278648832
-5.0348625 1646.6826 816 4279631872
-3.7816513 1646.8789 817 4279960065
-2.5247707 1647.0752 818 4280680709
-1.2678899 1647.6642 821 4280614916
0 1647.4679 820 4280615168
1.2678899 1647.6642 821 4280549376
2.5357797 1647.6642 821 4280418304
3.8036697 1647.6642 821 4280746496
5.0862384 1648.0569 823 4280026124
6.3669724 1648.2532 824 4279697415
7.6623855 1648.6459 826 4279828493
8.9522934 1648.8422 827 4279828493
10.231193 1648.8422 827 4280352772
11.526606 1649.0386 828 4280549383
12.844037 1649.4312 830 4280418312
14.12844 1649.4312 830 4280418312
15.478899 1650.0201 833 4280418312
16.768806 1650.0201 833 4280221702
18.084404 1650.2166 834 4279697414
19.376146 1650.2166 834 4279631877
20.667891 1650.2166 834 4279369728
22.022018 1650.6091 836 4279566339
23.350458 1650.8055 837 4279435274
24.647707 1650.8055 837 4279435274
25.981651 1651.0018 838 4279304192
27.357798 1651.3945 840 4279435264
28.660551 1651.3945 840 4279435264
29.963303 1651.3945 840 4279435264
31.266054 1651.3945 840 4279435264
32.614677 1651.5908 841 4279369728
33.919266 1651.5908 841 4279369728
35.322937 1651.9835 843 4279435264
36.682568 1652.1798 844 4279631883
37.992661 1652.1798 844 4279500808
39.302753 1652.1798 844 4279304192
40.612843 1652.1798 844 4279238656
41.922935 1652.1798 844 4279238656
43.233028 1652.1798 844 4279238656
44.543118 1652.1798 844 4279238656
45.981651 1652.5725 846 4279238656
47.163303 1652.1798 844 4278910976
48.609173 1652.5725 846 4278714368
49.922935 1652.5725 846 4278779904
51.236698 1652.5725 846 4278779904
52.550457 1652.5725 846 4278779904
53.939449 1652.7688 847 4278714368
55.255047 1652.7688 847 4278452224
56.491745 1652.5725 846 4278583299
57.886238 1652.7688 847 4278648850
59.119267 1652.5725 846 4278452238
60.433029 1652.5725 846 4278255616
61.746788 1652.5725 846 4278255616
62.884403 1652.1798 844 4278255616
64.194496 1652.1798 844 4278386688
65.504585 1652.1798 844 4278386688
66.814682 1652.1798 844 4278583296
68.124771 1652.1798 844 4278452224
69.43486 1652.1798 844 4278386688
70.744957 1652.1798 844 4278386688
72.055046 1652.1798 844 4278386688
73.365135 1652.1798 844 4278648832
74.570641 1651.9835 843 4278779904
75.666054 1651.5908 841 4278779904
76.970642 1651.5908 841 4278976512
78.27523 1651.5908 841 4279107584
79.579819 1651.5908 841 4279370496
80.884407 1651.5908 841 4280026372
82.188988 1651.5908 841 4280157958
83.493576 1651.5908 841 4280552734
84.798164 1651.5908 841 4280421148
85.981651 1651.3945 840 4280487173
87.284401 1651.3945 840 4280487173
88.587158 1651.3945 840 4281076230
89.889908 1651.3945 840 4281142279
90.935783 1651.0018 838 4281009685
92.234863 1651.0018 838 4280418316
93.401833 1650.8055 837 4278517766
94.56514 1650.6091 836 4278190080
95.86055 1650.6091 836 4278190080
96.880737 1650.2166 834 4278190592
98.172478 1650.2166 834 4278207848
99.322937 1650.0201 833 4284064196
100.61285 1650.0201 833 4288790517
101.61285 1649.6276 831 4291027455
102.89909 1649.6276 831 4292079871
104.0367 1649.4312 830 4291685119
105.02018 1649.0386 828 4289717759
106.30092 1649.0386 828 4289323007
107.42752 1648.8422 827 4289257727
108.55046 1648.6459 826 4289652223
109.82752 1648.6459 826 4289454847
110.78532 1648.2532 824 4289454847
112.05872 1648.2532 824 4289454847
113.16881 1648.0569 823 4289454847
114.44037 1648.0569 823 4289323519
115.37798 1647.6642 821 4289454847
116.64587 1647.6642 821 4289455103
117.74312 1647.4679 820 4289126143
119.00917 1647.4679 820 4288863743
119.92661 1647.0752 818 4288929535
121.18899 1647.0752 818 4288929791
122.45138 1647.0752 818 4289061375
123.71376 1647.0752 818 4289257727
124.79449 1646.8789 817 4289323519
126.05505 1646.8789 817 4289257727
127.3156 1646.8789 817 4289257727
128.57614 1646.8789 817 4289323519
130.02568 1647.0752 818 4289718271
131.28807 1647.0752 818 4289257727
133.12843 1647.6642 821 4289191935
134.78532 1648.0569 823 4289126399
136.05688 1648.0569 823 4289126399
-24.954128 1644.2568 810 4280878106
-23.706423 1644.2568 810 4281206814
-22.458715 1644.2568 810 4281273377
-21.21101 1644.2568 810 4281339170
-19.963303 1644.2568 810 4281471006
-18.770641 1644.6459 812 4281536799
-17.519266 1644.6459 812 4281145889
-16.267889 1644.6459 812 4281343011
-15.016514 1644.6459 812 4281277988
-13.765138 1644.6459 812 4280883486
-12.513762 1644.6459 812 4280684567
-11.278899 1644.8403 813 4280158223
-10.025688 1644.8403 813 4280811542
-8.7724771 1644.8403 813 4280418320
-7.5302753 1645.0349 814 4280549376
-6.2752295 1645.0349 814 4280745984
-5.0348625 1645.4238 816 4280614924
-3.7871559 1645.8129 818 4280614924
-2.53211 1646.2018 820 4280680709
-1.2678899 1646.3964 821 4280614916
0 1646.2018 820 4280614916
1.2678899 1646.3964 821 4280614916
2.5357797 1646.3964 821 4279960576
3.8146789 1646.7853 823 4280092160
5.1082568 1647.3688 826 4280025610
6.3853211 1647.3688 826 4280025610
7.6733947 1647.5634 827 4279828487
8.9651375 1647.7578 828 4279697414
10.245872 1647.7578 828 4280418304
11.526606 1647.7578 828 4280483840
12.862386 1648.3413 831 4280418304
14.188991 1648.7302 833 4280352768
15.500917 1648.9248 834 4279828487
16.79266 1648.9248 834 4279697414
18.084404 1648.9248 834 4279631872
19.431192 1649.3137 836 4279631872
20.726606 1649.3137 836 4279304192
22.053211 1649.5083 837 4279435264
23.383486 1649.7028 838 4280221697
24.68257 1649.7028 838 4280025088
26.055046 1650.0918 840 4279369728
27.357798 1650.0918 840 4279435264
28.700918 1650.2863 841 4279435264
30.005505 1650.2863 841 4279435264
31.310091 1650.2863 841 4279107586
32.614677 1650.2863 841 4278910976
34.014679 1650.6753 843 4279238656
35.322937 1650.6753 843 4279304192
36.682568 1650.8698 844 4279304192
37.992661 1650.8698 844 4279304192
39.302753 1650.8698 844 4279173120
40.612843 1650.8698 844 4279238656
42.040367 1651.2587 846 4279238656
43.35413 1651.2587 846 4279238656
44.667889 1651.2587 846 4279173120
45.981651 1651.2587 846 4279173120
47.295414 1651.2587 846 4278779904
48.609173 1651.2587 846 4278845440
49.922935 1651.2587 846 4278779904
51.308258 1651.4532 847 4278714368
52.623852 1651.4532 847 4278714371
53.939449 1651.4532 847 4278648833
55.255047 1651.4532 847 4278452224
56.570641 1651.4532 847 4278452224
57.886238 1651.4532 847 4278583305
59.201836 1651.4532 847 4278452230
60.517429 1651.4532 847 4278779904
61.746788 1651.2587 846 4278583296
63.060551 1651.2587 846 4278648832
64.374313 1651.2587 846 4278583296
65.688072 1651.2587 846 4278452224
67.001831 1651.2587 846 4278517760
68.315598 1651.2587 846 4278452224
69.629356 1651.2587 846 4278452224
70.943123 1651.2587 846 4278386688
72.055046 1650.8698 844 4278386688
73.365135 1650.8698 844 4278255616
74.675232 1650.8698 844 4278255616
75.985321 1650.8698 844 4278648832
77.187157 1650.6753 843 4278910976
78.495415 1650.6753 843 4279173120
79.803673 1650.6753 843 4279369728
81.111923 1650.6753 843 4279173123
82.420181 1650.6753 843 4279501833
83.728439 1650.6753 843 4279763988
85.036697 1650.6753 843 4279961110
86.102753 1650.2863 841 4280092165
87.407341 1650.2863 841 4280289800
88.711929 1650.2863 841 4280289800
89.889908 1650.0918 840 4280355593
91.192657 1650.0918 840 4281009685
92.234863 1649.7028 838 4281009685
93.533943 1649.7028 838 4280878603
94.699081 1649.5083 837 4280287234
95.99633 1649.5083 837 4278976512
97.15596 1649.3137 836 4278452224
98.172478 1648.9248 834 4278190080
99.464218 1648.9248 834 4282270777
100.75597 1648.9248 834 4285365656
101.90276 1648.7302 833 4289642201
102.89909 1648.3413 831 4290568191
104.18532 1648.3413 831 4291028735
105.47156 1648.3413 831 4290111999
106.60551 1648.1467 830 4289585663
107.58165 1647.7578 828 4288995583
108.70642 1647.5634 827 4289324543
109.98532 1647.5634 827 4289127935
111.10458 1647.3688 826 4289062143
112.38165 1647.3688 826 4289324287
113.33211 1646.9799 824 4289258239
114.44037 1646.7853 823 4288470271
115.71193 1646.7853 823 4288996607
116.64587 1646.3964 821 4289586687
117.91376 1646.3964 821 4289191935
119.00917 1646.2018 820 4288929279
119.92661 1645.8129 818 4289126399
121.18899 1645.8129 818 4288929791
122.45138 1645.8129 818 4288995583
123.71376 1645.8129 818 4289323519
124.79449 1645.6184 817 4289323519
126.05505 1645.6184 817 4289323519
127.3156 1645.6184 817 4289257727
128.57614 1645.6184 817 4289388543
129.8367 1645.6184 817 4289388543
131.09724 1645.6184 817 4289323519
132.3578 1645.6184 817 4289257727
133.61835 1645.6184 817 4289191935
134.87891 1645.6184 817 4289191935
-26.201836 1643.0092 810 4280029733
-24.954128 1643.0092 810 4281339420
-23.706423 1643.0092 810 4281339420
-22.458715 1643.0092 810 4281600538
-21.179817 1642.8165 809 4281929760
-19.963303 1643.0092 810 4281865523
-18.715597 1643.0092 810 4281470765
-17.46789 1643.0092 810 4281405213
-16.220184 1643.0092 810 4281405213
-14.972477 1643.0092 810 4281339668
-13.765138 1643.3945 812 4281076752
-12.513762 1643.3945 812 4281142279
-11.278899 1643.5872 813 4280813314
-10.025688 1643.5872 813 4280811790
-8.7724771 1643.5872 813 4280614924
-7.5302753 1643.7798 814 4280942598
-6.2752295 1643.7798 814 4280877060
-5.0348625 1644.1652 816 4280877335
-3.7871559 1644.5504 818 4280680469
-2.53211 1644.9358 820 4280680709
-1.2678899 1645.1284 821 4280614916
0 1644.9358 820 4280549378
1.2678899 1645.1284 821 4280549378
2.5431192 1645.5138 823 4280483841
3.8311927 1646.0918 826 4280483841
5.1155963 1646.2844 827 4280483841
6.3944955 1646.2844 827 4280352768
7.6844039 1646.4771 828 4279894272
8.9651375 1646.4771 828 4279894272
10.275229 1646.8624 830 4280418304
11.576147 1647.0551 831 4280418304
12.899082 1647.4404 833 4280418304
14.209174 1647.6331 834 4280352768
15.544954 1648.0183 836 4280352772
16.840366 1648.0183 836 4280287235
18.13578 1648.0183 836 4279631872
19.458715 1648.2111 837 4279566336
20.755962 1648.2111 837 4280287232
22.053211 1648.2111 837 4280221696
23.383486 1648.4037 838 4280221697
24.752293 1648.7889 840 4280221697
26.055046 1648.7889 840 4279369728
27.39633 1648.9817 841 4279435264
28.700918 1648.9817 841 4279566336
30.005505 1648.9817 841 4279500800
31.398165 1649.3669 843 4279304192
32.706421 1649.3669 843 4279304192
34.014679 1649.3669 843 4279173120
35.372478 1649.5596 844 4279173120
36.682568 1649.5596 844 4279173120
37.992661 1649.5596 844 4279173120
39.412846 1649.9449 846 4279173120
40.726604 1649.9449 846 4279304192
42.040367 1649.9449 846 4279238656
43.35413 1649.9449 846 4279107584
44.730274 1650.1376 847 4279173120
46.045872 1650.1376 847 4279173120
47.361469 1650.1376 847 4279107584
48.677063 1650.1376 847 4279107584
49.992661 1650.1376 847 4279107584
59.201836 1650.1376 847 4278845440
60.517429 1650.1376 847 4278386688
61.833027 1650.1376 847 4278386688
63.060551 1649.9449 846 4278386688
64.374313 1649.9449 846 4278255616
65.688072 1649.9449 846 4278452224
67.095413 1650.1376 847 4278517760
68.411011 1650.1376 847 4278517760
69.726608 1650.1376 847 4278517760
70.943123 1649.9449 846 4278517760
72.256882 1649.9449 846 4278255616
73.570641 1649.9449 846 4278386688
74.884407 1649.9449 846 4278386688
75.985321 1649.5596 844 4278386688
77.29541 1649.5596 844 4278517760
78.605507 1649.5596 844 4278779904
80.13945 1649.9449 846 4278779904
81.225685 1649.5596 844 4278845440
82.420181 1649.3669 843 4278910976
83.728439 1649.3669 843 4279107586
85.036697 1649.3669 843 4279173123
86.344955 1649.3669 843 4279435265
87.653214 1649.3669 843 4279697413
88.711929 1648.9817 841 4280483849
90.01651 1648.9817 841 4280680461
91.192657 1648.7889 840 4280812294
92.495415 1648.7889 840 4280943880
93.533943 1648.4037 838 4280878603
94.833031 1648.4037 838 4280878603
95.99633 1648.2111 837 4280354842
97.293579 1648.2111 837 4279894291
98.451378 1648.0183 836 4278190108
99.464218 1647.6331 834 4278190098
100.75597 1647.6331 834 4278190080
101.90276 1647.4404 833 4280758569
103.19266 1647.4404 833 4283465633
104.48257 1647.4404 833 4288202729
105.47156 1647.0551 831 4290238207
106.60551 1646.8624 830 4291093503
107.58165 1646.4771 828 4290767103
108.86239 1646.4771 828 4290372351
110.14312 1646.4771 828 4289454847
111.26422 1646.2844 827 4289323519
112.54312 1646.2844 827 4289324031
113.65871 1646.0918 826 4289389823
114.93578 1646.0918 826 4288929791
115.8789 1645.7064 824 4289127167
116.98349 1645.5138 823 4289454847
117.91376 1645.1284 821 4289191935
119.00917 1644.9358 820 4288929791
119.92661 1644.5504 818 4289521919
121.18899 1644.5504 818 4289323519
122.27339 1644.3578 817 4289323519
123.53394 1644.3578 817 4289192191
124.79449 1644.3578 817 4289192191
126.05505 1644.3578 817 4289257727
127.3156 1644.3578 817 4289257727
128.38899 1644.1652 816 4289191935
129.64771 1644.1652 816 4289191935
130.90642 1644.1652 816 4289257727
132.3578 1644.3578 817 4289323519
133.42386 1644.1652 816 4289257727
134.68257 1644.1652 816 4289257727
135.34679 1643.5872 813 4289323519
136.60001 1643.5872 813 4289323519
-27.288073 1640.9982 806 4281273377
-26.047707 1640.9982 806 4281339170
-24.917431 1641.5707 809 4281405213
-23.67156 1641.5707 809 4281405213
-22.425688 1641.5707 809 4281666332
-21.148624 1641.3799 808 4281863967
-19.933945 1641.5707 809 4281600289
-18.715597 1641.7615 810 4281337373
-17.442202 1641.5707 809 4281468439
-16.196331 1641.5707 809 4281205267
-14.950459 1641.5707 809 4280878353
-13.724771 1641.7615 810 4280812560
-12.513762 1642.1431 812 4280157710
-11.262385 1642.1431 812 4280026124
-10.011009 1642.1431 812 4279959561
-8.7724771 1642.334 813 4279959561
-7.5302753 1642.5248 814 4280877066
-6.2752295 1642.5248 814 4281008141
-5.0348625 1642.9064 816 4280942645
-3.7871559 1643.2881 818 4280680497
-2.5357797 1643.8606 821 4280549386
-1.2715596 1644.2422 823 4280614924
0 1643.8606 821 4280483841
1.2715596 1644.2422 823 4280418304
2.5467889 1644.433 824 4280418304
3.8311927 1644.8147 826 4280352768
5.1155963 1645.0055 827 4280418311
6.3944955 1645.0055 827 4280418311
7.6844039 1645.1963 828 4280418304
8.9908257 1645.578 830 4280483840
10.275229 1645.578 830 4280418304
11.576147 1645.7688 831 4280418304
12.899082 1646.1504 833 4280418311
14.209174 1646.3413 834 4280352774
15.544954 1646.7229 836 4279697414
16.840366 1646.7229 836 4279631877
18.161469 1646.9138 837 4279631872
19.458715 1646.9138 837 4279566336
20.755962 1646.9138 837 4280221696
22.084404 1647.1046 838 4280221696
23.383486 1647.1046 838 4280221697
24.752293 1647.4862 840 4279959552
26.091743 1647.677 841 4279304192
27.39633 1647.677 841 4279369728
28.781651 1648.0587 843 4279500800
30.089909 1648.0587 843 4279500800
31.398165 1648.0587 843 4279304192
32.752293 1648.2495 844 4279304192
34.062386 1648.2495 844 4279238656
35.372478 1648.2495 844 4279238656
36.78532 1648.6312 846 4279959552
38.099083 1648.6312 846 4279894016
61.833027 1648.822 847 4278452224
63.148624 1648.822 847 4278190080
64.464218 1648.822 847 4278190080
65.779816 1648.822 847 4278452224
67.095413 1648.822 847 4278583296
68.411011 1648.822 847 4278452224
69.726608 1648.822 847 4278517760
71.042198 1648.822 847 4278190080
72.357796 1648.822 847 4278190080
73.673393 1648.822 847 4278190080
74.884407 1648.6312 846 4278190080
76.198166 1648.6312 846 4278190080
77.511925 1648.6312 846 4278386688
78.605507 1648.2495 844 4278386688
79.915596 1648.2495 844 4278452224
81.225685 1648.2495 844 4278452224
82.535782 1648.2495 844 4278517760
83.845871 1648.2495 844 4278714371
85.15596 1648.2495 844 4278714371
86.344955 1648.0587 843 4279238656
87.653214 1648.0587 843 4279369728
88.961472 1648.0587 843 4280352772
90.01651 1647.677 841 4280418309
91.321098 1647.677 841 4280549386
92.495415 1647.4862 840 4280877583
93.798164 1647.4862 840 4280289800
94.833031 1647.1046 838 4280289800
96.132111 1647.1046 838 4281010187
97.43119 1647.1046 838 4281075980
98.590828 1646.9138 837 4280877583
99.746788 1646.7229 836 4280090627
101.0422 1646.7229 836 4278190080
102.04771 1646.3413 834 4278190080
103.19266 1646.1504 833 4279774758
104.48257 1646.1504 833 4285235321
105.77248 1646.1504 833 4288457943
106.7578 1645.7688 831 4290826491
107.88991 1645.578 830 4291029247
108.86239 1645.1963 828 4290765823
110.14312 1645.1963 828 4289456383
111.26422 1645.0055 827 4289193471
112.54312 1645.0055 827 4288863743
113.82202 1645.0055 827 4289061375
114.93578 1644.8147 826 4289192191
115.8789 1644.433 824 4289258239
116.98349 1644.2422 823 4289454847
117.91376 1643.8606 821 4289257727
119.00917 1643.6697 820 4288863743
119.92661 1643.2881 818 4289127167
121.18899 1643.2881 818 4289126399
122.27339 1643.0973 817 4289258239
123.53394 1643.0973 817 4289257727
124.79449 1643.0973 817 4289323519
126.05505 1643.0973 817 4289585407
127.3156 1643.0973 817 4289453823
128.38899 1642.9064 816 4289257727
129.64771 1642.9064 816 4289257727
130.90642 1642.9064 816 4289191935
132.16513 1642.9064 816 4289323519
133.03487 1642.5248 814 4289257727
134.09358 1642.334 813 4289257727
135.14862 1642.1431 812 4289520383
136.39999 1642.1431 812 4289454335
137.24771 1641.7615 810 4289323519
-28.486238 1639.5688 805 4280554283
-26.047707 1639.7578 806 4281339420
-24.880733 1640.1357 808 4281273626
-23.636698 1640.1357 808 4281076248
-22.39266 1640.1357 808 4281469209
-21.148624 1640.1357 808 4281469209
-19.904587 1640.1357 808 4281205267
-18.688074 1640.3247 809 4281205267
-17.442202 1640.3247 809 4280811790
-16.196331 1640.3247 809 4280811790
-14.950459 1640.3247 809 4280614924
-13.724771 1640.5138 810 4280614924
-12.513762 1640.8917 812 4280549386
-11.262385 1640.8917 812 4280418312
-10.011009 1640.8917 812 4280418304
-8.7724771 1641.0807 813 4280483841
-7.5302753 1641.2698 814 4280680469
-6.2935781 1641.6477 816 4282851125
-5.042202 1641.8367 817 4282522676
-3.7981651 1642.4037 820 4280549398
-2.5431192 1642.9707 823 4280549395
-1.2715596 1642.9707 823 4280549395
0 1642.9707 823 4280549376
1.2733945 1643.1597 824 4280483840
2.5541284 1643.5376 826 4280352772
3.8366973 1643.7266 827 4280352772
5.1155963 1643.7266 827 4280418304
6.4036698 1643.9156 828 4280352768
7.6844039 1643.9156 828 4280352768
8.9908257 1644.2936 830 4280418304
10.289908 1644.4825 831 4280287232
11.609175 1644.8606 833 4280352768
12.917431 1645.0496 834 4279828487
14.249541 1645.4275 836 4279697414
15.566973 1645.6165 837 4279697414
16.86422 1645.6165 837 4279631877
18.187157 1645.8055 838 4279631875
19.486238 1645.8055 838 4279435264
20.78532 1645.8055 838 4280221696
22.14679 1646.1835 840 4280090624
23.449541 1646.1835 840 4280090624
24.787155 1646.3724 841 4279959552
26.165138 1646.7505 843 4279238656
27.473394 1646.7505 843 4279304192
28.822018 1646.9395 844 4279304192
30.132111 1646.9395 844 4279238656
31.442202 1646.9395 844 4279173120
32.752293 1646.9395 844 4279238656
78.825691 1647.3174 846 4278190080
80.13945 1647.3174 846 4278190080
81.453209 1647.3174 846 4278190080
82.535782 1646.9395 844 4278190080
83.845871 1646.9395 844 4278255620
85.15596 1646.9395 844 4278452230
86.466057 1646.9395 844 4278648833
87.776146 1646.9395 844 4278910982
88.961472 1646.7505 843 4279435265
90.269722 1646.7505 843 4279566339
91.321098 1646.3724 841 4279828487
92.625687 1646.3724 841 4279959561
93.798164 1646.1835 840 4280026124
95.100914 1646.1835 840 4280157710
96.132111 1645.8055 838 4280878603
97.43119 1645.8055 838 4280878603
98.730278 1645.8055 838 4280878355
99.888077 1645.6165 837 4280812562
101.0422 1645.4275 836 4279961628
102.33762 1645.4275 836 4278452229
103.33945 1645.0496 834 4278190080
104.48257 1644.8606 833 4278191104
105.77248 1644.8606 833 4279059721
107.06239 1644.8606 833 4284915042
108.04404 1644.4825 831 4288921574
109.17431 1644.2936 830 4291421695
110.45872 1644.2936 830 4291620351
111.42385 1643.9156 828 4291291135
112.70459 1643.9156 828 4289520383
113.82202 1643.7266 827 4289388543
115.10091 1643.7266 827 4289192191
116.21284 1643.5376 826 4289192191
117.15229 1643.1597 824 4289520383
118.25504 1642.9707 823 4289586175
119.00917 1642.4037 820 4288863743
119.92661 1642.0256 818 4289061375
121.18899 1642.0256 818 4289191935
122.27339 1641.8367 817 4289520639
123.53394 1641.8367 817 4289717503
124.79449 1641.8367 817 4289586175
126.05505 1641.8367 817 4289716991
127.13027 1641.6477 816 4289782783
128.38899 1641.6477 816 4289716991
129.64771 1641.6477 816 4290045951
130.52477 1641.2698 814 4289586175
131.58716 1641.0807 813 4289586175
132.64587 1640.8917 812 4289388543
133.89725 1640.8917 812 4289388543
135.14862 1640.8917 812 4289454335
136.39999 1640.8917 812 4289783295
137.24771 1640.5138 810 4289324031
138.29175 1640.3247 809 4289324031
-29.680735 1638.1431 804 4280749861
-27.247707 1638.3303 805 4281339668
-26.009174 1638.3303 805 4281339668
-24.807339 1638.5175 806 4281273626
-23.566973 1638.5175 806 4281273626
-22.326605 1638.5175 806 4281468439
-21.086239 1638.5175 806 4281139474
-19.904587 1638.8917 808 4281073681
-18.660551 1638.8917 808 4280942607
-17.416513 1638.8917 808 4280680709
-16.196331 1639.0789 809 4280680709
-14.950459 1639.0789 809 4280614916
-13.724771 1639.2661 810 4280614916
-12.477064 1639.2661 810 4280614932
-11.262385 1639.6404 812 4280614932
-10.011009 1639.6404 812 4280614916
-8.7724771 1639.8275 813 4280549378
-7.5302753 1640.0146 814 4280942604
-6.2935781 1640.389 816 4282849577
-5.0495415 1640.7633 818 4282326328
-3.8036697 1641.3247 821 4280418331
-2.5431192 1641.6991 823 4280483849
-1.2733945 1641.8862 824 4280614924
0 1641.8862 824 4279828736
1.2770642 1642.2605 826 4279828736
2.5577981 1642.4478 827 4280352772
3.8366973 1642.4478 827 4280352772
5.1229358 1642.6349 828 4280418311
6.4036698 1642.6349 828 4280418311
7.7064219 1643.0092 830 4280418304
9.0036697 1643.1963 831 4280483840
10.319266 1643.5707 833 4279631872
11.625688 1643.7578 834 4279631872
12.917431 1643.7578 834 4279828493
14.249541 1644.1321 836 4279697420
15.588991 1644.5065 838 4279631877
16.86422 1644.3192 837 4279631877
18.187157 1644.5065 838 4279631872
19.486238 1644.5065 838 4279435264
20.844036 1644.8807 840 4280090624
22.14679 1644.8807 840 4280090624
23.482569 1645.0679 841 4280025088
24.85688 1645.4421 843 4279894016
26.201836 1645.6294 844 4279173120
27.511927 1645.6294 844 4279238656
28.822018 1645.6294 844 4279238656
30.132111 1645.6294 844 4279238656
31.442202 1645.6294 844 4279173120
85.15596 1645.6294 844 4278190080
86.466057 1645.6294 844 4278386688
87.776146 1645.6294 844 4278648832
89.086235 1645.6294 844 4278910982
90.269722 1645.4421 843 4278910982
91.321098 1645.0679 841 4279238662
92.625687 1645.0679 841 4279435274
93.798164 1644.8807 840 4279631877
95.100914 1644.8807 840 4279828487
96.403671 1644.8807 840 4280680709
97.43119 1644.5065 838 4280680709
98.730278 1644.5065 838 4280813064
100.02936 1644.5065 838 4280747271
101.18532 1644.3192 837 4281271317
102.48257 1644.3192 837 4280942607
103.63303 1644.1321 836 4279369728
104.6312 1643.7578 834 4278910976
105.77248 1643.5707 833 4278190848
107.06239 1643.5707 833 4282273078
108.04404 1643.1963 831 4284907144
109.33028 1643.1963 831 4289315018
110.61652 1643.1963 831 4291288831
111.74312 1643.0092 830 4291354623
112.70459 1642.6349 828 4290176511
113.98532 1642.6349 828 4289847551
115.10091 1642.4478 827 4289257727
116.37981 1642.4478 827 4289257727
117.48991 1642.2605 826 4289585407
118.25504 1641.6991 823 4289585407
119.18165 1641.3247 821 4288995071
120.44954 1641.3247 821 4289257983
121.18899 1640.7633 818 4289192191
122.27339 1640.5762 817 4289455615
123.53394 1640.5762 817 4289717759
124.79449 1640.5762 817 4289717759
125.87156 1640.389 816 4289520895
127.13027 1640.389 816 4289455103
128.38899 1640.389 816 4288863743
129.26973 1640.0146 814 4289192959
130.33394 1639.8275 813 4288929791
131.58716 1639.8275 813 4289127167
132.64587 1639.6404 812 4289585407
133.89725 1639.6404 812 4289585407
135.14862 1639.6404 812 4288929791
136 1639.2661 810 4289324287
137.24771 1639.2661 810 4289193215
138.29175 1639.0789 809 4289193215
-28.444036 1636.9064 804 4281207833
-27.20734 1636.9064 804 4281601292
-25.970642 1636.9064 804 4281469963
-24.770641 1637.0918 805 4281207833
-23.497248 1636.9064 804 4281076248
-22.293577 1637.0918 805 4281468943
-21.055046 1637.0918 805 4281205771
-19.845871 1637.2771 806 4280878603
-18.660551 1637.6477 808 4280615431
-17.416513 1637.6477 808 4280614916
-16.172478 1637.6477 808 4280614916
-14.950459 1637.833 809 4280680709
-13.704587 1637.833 809 4280614916
-12.477064 1638.0183 810 4280680475
-11.262385 1638.389 812 4280614938
-10.025688 1638.5743 813 4280549386
-8.7724771 1638.5743 813 4280614924
-7.5522938 1639.1302 816 4280942604
-6.3027525 1639.3156 817 4281270544
-5.06422 1639.8716 820 4281139474
-3.8036697 1640.0569 821 4280811534
-2.5467889 1640.6128 824 4280549378
-1.2733945 1640.6128 824 4280483841
0 1640.9835 826 4280418304
1.2770642 1640.9835 826 4280418304
2.5577981 1641.1688 827 4280418312
3.8422019 1641.3541 828 4280483849
5.1376147 1641.7247 830 4280483857
6.4311929 1641.9102 831 4280483857
7.7394495 1642.2808 833 4280418304
9.0293579 1642.2808 833 4280418304
10.333945 1642.4661 834 4279631877
11.675229 1643.022 837 4279697414
12.972477 1643.022 837 4279894038
14.289908 1643.2073 838 4279697428
15.588991 1643.2073 838 4279697414
16.888073 1643.2073 838 4279697414
18.238533 1643.578 840 4279631872
19.541285 1643.578 840 4279435264
20.873394 1643.7633 841 4279304192
22.177982 1643.7633 841 4279435264
23.548624 1644.1339 843 4279238656
87.776146 1644.3192 844 4278255616
89.086235 1644.3192 844 4278714371
90.269722 1644.1339 843 4278714371
91.57798 1644.1339 843 4279238656
92.886238 1644.1339 843 4279238656
93.930275 1643.7633 841 4279631872
95.234863 1643.7633 841 4279631872
96.403671 1643.578 840 4279960065
97.706421 1643.578 840 4280025858
99.009171 1643.578 840 4280290048
100.31193 1643.578 840 4280224256
101.32844 1643.2073 838 4281076230
102.62753 1643.2073 838 4281142279
103.77982 1643.022 837 4281076230
104.92844 1642.8367 836 4280549888
105.92294 1642.4661 834 4278255619
107.06239 1642.2808 833 4278190080
108.35229 1642.2808 833 4278190080
109.33028 1641.9102 831 4281812023
110.61652 1641.9102 831 4286158003
111.74312 1641.7247 830 4290631928
113.02752 1641.7247 830 4291290367
113.98532 1641.3541 828 4291290367
115.26605 1641.3541 828 4290175999
116.37981 1641.1688 827 4289847039
117.48991 1640.9835 826 4289388543
118.25504 1640.4275 823 4289322751
119.18165 1640.0569 821 4289257727
120.27523 1639.8716 820 4289586431
121.18899 1639.501 818 4289520383
122.45138 1639.501 818 4289783295
123.53394 1639.3156 817 4289783039
124.79449 1639.3156 817 4289717247
126.05505 1639.3156 817 4289651199
127.13027 1639.1302 816 4289651199
128.38899 1639.1302 816 4288863743
129.26973 1638.7596 814 4289390079
130.33394 1638.5743 813 4289520895
131.3945 1638.389 812 4289455103
132.64587 1638.389 812 4289323519
133.89725 1638.389 812 4289454847
135.14862 1638.389 812 4289454847
136 1638.0183 810 4289652479
137.24771 1638.0183 810 4289390079
138.29175 1637.833 809 4289324287
139.53761 1637.833 809 4289454847
-29.592661 1635.3027 802 4281075478
-28.444036 1635.6697 804 4281338906
-27.20734 1635.6697 804 4281403664
-25.970642 1635.6697 804 4281469713
-24.733946 1635.6697 804 4281271565
-23.497248 1635.6697 804 4281139978
-22.26055 1635.6697 804 4281010187
-21.023853 1635.6697 804 4280878857
-19.816513 1635.8533 805 4280289800
-18.605505 1636.0367 806 4280026372
-17.365137 1636.0367 806 4280091404
-16.172478 1636.4037 808 4280091404
-14.950459 1636.5872 809 4280025610
-13.704587 1636.5872 809 4279959561
-12.477064 1636.7706 810 4280549395
-11.262385 1637.1376 812 4280549395
-10.025688 1637.321 813 4280549378
-8.7853212 1637.5046 814 4280680709
-7.5633025 1638.0551 817 4280680461
-6.3119268 1638.2385 818 4280943376
-5.0715594 1638.7889 821 4280680469
-3.8146789 1639.156 823 4280614932
-2.5467889 1639.3395 824 4280680709
-1.2770642 1639.7064 826 4280549378
0 1639.7064 826 4280026368
1.2770642 1639.7064 826 4279960576
2.5577981 1639.8899 827 4280483841
3.8532109 1640.4404 830 4280352768
5.1376147 1640.4404 830 4280418311
6.4495411 1640.9908 833 4280418311
7.7504587 1641.1743 834 4280418304
9.0678902 1641.5413 836 4280287232
10.363303 1641.5413 836 4279435265
11.724771 1642.2753 840 4279566339
12.990826 1641.9082 838 4279631883
14.330276 1642.2753 840 4279631883
15.655046 1642.4587 841 4279631877
16.959633 1642.4587 841 4279631877
18.264219 1642.4587 841 4279435265
19.568808 1642.4587 841 4279566339
92.886238 1642.8257 843 4278714371
94.194496 1642.8257 843 4278976512
95.502754 1642.8257 843 4279304192
96.539452 1642.4587 841 4279435265
97.84404 1642.4587 841 4279697413
99.009171 1642.2753 840 4280157958
100.31193 1642.2753 840 4280289800
101.61468 1642.2753 840 4280224007
102.62753 1641.9082 838 4280486923
103.92661 1641.9082 838 4281075982
105.07706 1641.7247 837 4281207568
106.22385 1641.5413 836 4280879107
107.21468 1641.1743 834 4280090624
108.35229 1640.9908 833 4278190080
109.6422 1640.9908 833 4278321152
110.61652 1640.6239 831 4281089853
111.90276 1640.6239 831 4287339931
113.02752 1640.4404 830 4290497791
114.31193 1640.4404 830 4291221247
115.26605 1640.0734 828 4290963199
116.37981 1639.8899 827 4290502655
117.48991 1639.7064 826 4289388543
118.42569 1639.3395 824 4289454335
119.5266 1639.156 823 4289454335
120.44954 1638.7889 821 4289717503
121.54128 1638.6055 820 4289586175
122.45138 1638.2385 818 4289586175
123.53394 1638.0551 817 4289848063
124.79449 1638.0551 817 4289848063
126.05505 1638.0551 817 4289651199
127.13027 1637.8716 816 4289651199
128.01468 1637.5046 814 4288667135
129.26973 1637.5046 814 4289193471
130.33394 1637.321 813 4289455871
131.3945 1637.1376 812 4289258239
132.64587 1637.1376 812 4288602111
133.50459 1636.7706 810 4288996607
134.75229 1636.7706 810 4289390079
136 1636.7706 810 4289587199
137.24771 1636.7706 810 4289390079
138.29175 1636.5872 809 4289390079
139.33211 1636.4037 808 4289520895
140.57614 1636.4037 808 4289520895
-29.592661 1634.0697 802 4281271565
-28.359632 1634.0697 802 4281271565
-27.126606 1634.0697 802 4281271565
-25.893578 1634.0697 802 4281271565
-24.733946 1634.433 804 4281205771
-23.497248 1634.433 804 4280942599
-22.26055 1634.433 804 4280812294
-21.023853 1634.433 804 4280812294
-19.787155 1634.433 804 4280614916
-18.577982 1634.6146 805 4280614916
-17.365137 1634.7964 806 4280026124
-16.172478 1635.1597 808 4279894538
-14.92844 1635.1597 808 4279959561
-13.724771 1635.5229 810 4279959561
-12.477064 1635.5229 810 4280549386
-11.278899 1636.0679 813 4280483849
-10.025688 1636.0679 813 4280483849
-8.8110094 1636.6128 816 4280614924
-7.5743117 1636.9762 818 4280614932
-6.3302751 1637.3395 820 4280614932
-5.0715594 1637.5211 821 4280614932
-3.8201835 1638.066 824 4280614932
-2.5541284 1638.4293 826 4280614924
-1.2788991 1638.611 827 4280483849
0 1638.611 827 4280483841
1.2788991 1638.611 827 4280549378
2.5614679 1638.7927 828 4280549376
3.8587155 1639.3376 831 4280287232
5.1596332 1639.7009 833 4280221696
6.4587154 1639.8826 834 4280352768
7.7724771 1640.2458 836 4280352772
9.0807343 1640.4275 837 4280221697
10.39266 1640.6091 838 4280221697
11.724771 1640.9724 840 4280287235
13.027523 1640.9724 840 4280090624
99.148621 1641.1542 841 4279631872
100.45321 1641.1542 841 4280091652
101.61468 1640.9724 840 4280026368
102.91743 1640.9724 840 4280092160
103.92661 1640.6091 838 4280158464
105.22569 1640.6091 838 4280487427
106.37431 1640.4275 837 4281075982
107.51926 1640.2458 836 4281075982
108.50642 1639.8826 834 4280159007
109.6422 1639.7009 833 4278845451
110.93211 1639.7009 833 4278190080
111.90276 1639.3376 831 4278588422
113.18899 1639.3376 831 4283790957
114.31193 1639.156 830 4289449155
115.26605 1638.7927 828 4291288831
116.54679 1638.7927 828 4291683583
117.65871 1638.611 827 4290438143
118.42569 1638.066 824 4290438143
119.5266 1637.8844 823 4289914879
120.44954 1637.5211 821 4289783039
121.54128 1637.3395 820 4289323519
122.45138 1636.9762 818 4289257727
123.71376 1636.9762 818 4289651199
124.79449 1636.7944 817 4290177535
126.05505 1636.7944 817 4290241791
127.13027 1636.6128 816 4290438911
128.38899 1636.6128 816 4289454847
129.26973 1636.2495 814 4289718271
130.33394 1636.0679 813 4289520895
131.3945 1635.8862 812 4289455103
132.64587 1635.8862 812 4289454847
133.50459 1635.5229 810 4289454847
134.75229 1635.5229 810 4289454847
136 1635.5229 810 4289520895
137.04587 1635.3413 809 4289717503
138.29175 1635.3413 809 4289586175
139.33211 1635.1597 808 4289586175
140.57614 1635.1597 808 4289586175
141.40184 1634.7964 806 4289520383
142.6422 1634.7964 806 4289586175
-29.592661 1632.8367 802 4281271565
-28.359632 1632.8367 802 4281271565
-27.126606 1632.8367 802 4281205771
-25.893578 1632.8367 802 4281139978
-24.660551 1632.8367 802 4281074185
-23.427523 1632.8367 802 4280811526
-22.194496 1632.8367 802 4280680709
-21.023853 1633.1963 804 4280812294
-19.787155 1633.1963 804 4280026124
-18.577982 1633.3761 805 4280026124
-17.365137 1633.5559 806 4280614916
-16.172478 1633.9156 808 4280549378
-14.950459 1634.0955 809 4280549386
-13.704587 1634.0955 809 4280614924
-12.477064 1634.2753 810 4280614924
-11.278899 1634.8147 813 4280614924
-10.040367 1634.9945 814 4280549378
-8.8238535 1635.5339 817 4280614916
-7.5743117 1635.7137 818 4280877066
-6.3302751 1636.0734 820 4280942604
-5.0862384 1636.6128 823 4280680461
-3.8201835 1636.7927 824 4280614924
-2.5577981 1637.3322 827 4280680709
-1.2807339 1637.512 828 4280680709
0 1637.3322 827 4279895042
1.2807339 1637.512 828 4280026372
2.5688074 1637.8716 830 4280483841
3.8697248 1638.411 833 4280418304
5.1596332 1638.411 833 4280418304
6.4770641 1638.9504 836 4280418304
7.7724771 1638.9504 836 4280418304
9.0935783 1639.3101 838 4280287232
100.45321 1639.8495 841 4279042048
101.7578 1639.8495 841 4279697408
102.91743 1639.6697 840 4280025858
104.22018 1639.6697 840 4280092165
105.22569 1639.3101 838 4280355593
106.52477 1639.3101 838 4280355843
107.51926 1638.9504 836 4280619015
108.50642 1638.5908 834 4280750360
109.79816 1638.5908 834 4280684567
110.93211 1638.411 833 4278583808
112.22202 1638.411 833 4278583808
113.51192 1638.411 833 4278658048
114.47523 1638.0514 831 4286290017
115.59633 1637.8716 830 4289905391
116.54679 1637.512 828 4291287039
117.65871 1637.3322 827 4290767103
118.76698 1637.1523 826 4290372351
119.69908 1636.7927 824 4289455871
120.79816 1636.6128 823 4289324287
