# .PCD v0.7 - Point Cloud Data file format
VERSION 0.7
FIELDS x y z rgb
SIZE 4 4 4 4
TYPE F F F U
COUNT 1 1 1 1
WIDTH 1357
HEIGHT 1
VIEWPOINT 0 0 0 1 0 0 0
POINTS 1357
DATA ascii
-35.284405 1588.4496 771 4281207568
-34.108257 1588.4496 771 4281075982
-32.93211 1588.4496 771 4281271815
-31.755962 1588.4496 771 4281271815
-30.53211 1588.3303 770 4281008384
-29.357798 1588.3303 770 4283113752
136.73395 1589.2844 778 4290507519
137.7101 1589.1652 777 4289586687
138.68257 1589.0459 776 4289652735
139.86789 1589.0459 776 4290111999
140.61652 1588.8074 774 4290177791
141.79817 1588.8074 774 4289914623
142.97981 1588.8074 774 4289914623
144.16147 1588.8074 774 4289849343
145.11743 1588.6881 773 4289980927
146.29724 1588.6881 773 4290177279
147.70642 1588.8074 774 4290308863
148.88808 1588.8074 774 4290504959
-42.27523 1587.156 770 4281015065
-41.100918 1587.156 770 4281015065
-39.988991 1587.2734 771 4281537566
-38.752293 1587.156 770 4281537566
-37.57798 1587.156 770 4281405717
-36.460552 1587.2734 771 4281273874
-35.284405 1587.2734 771 4281273865
-34.108257 1587.2734 771 4281142279
-32.93211 1587.2734 771 4281404418
-31.755962 1587.2734 771 4281207040
-30.53211 1587.156 770 4280745984
-29.266054 1586.9211 768 4282718994
136.52293 1587.978 777 4290046207
137.49725 1587.8606 776 4289586687
138.2532 1587.6257 774 4289981439
139.43486 1587.6257 774 4290440447
140.61652 1587.6257 774 4290308863
141.57799 1587.5083 773 4289586687
142.7578 1587.5083 773 4289718527
143.93762 1587.5083 773 4290177279
144.89174 1587.3909 772 4290177279
146.06972 1587.3909 772 4290439167
147.47707 1587.5083 773 4290307839
148.65688 1587.5083 773 4290504447
-43.245872 1585.6349 767 4280817171
-42.14312 1585.7505 768 4281471006
-40.972477 1585.7505 768 4281668384
-39.801834 1585.7505 768 4281537566
-38.631191 1585.7505 768 4281339931
-37.460552 1585.7505 768 4281403416
-36.403671 1585.9817 770 4281469209
-35.229359 1585.9817 770 4281208072
-34.055046 1585.9817 770 4281208072
-32.880733 1585.9817 770 4281469193
-31.706423 1585.9817 770 4281469193
-30.436697 1585.7505 768 4280483840
-29.266054 1585.7505 768 4280812032
135.33578 1586.7908 777 4290111999
136.31192 1586.6753 776 4289849087
137.49725 1586.6753 776 4290177279
138.2532 1586.4441 774 4290637823
139.21835 1586.3285 773 4290505983
140.17981 1586.2129 772 4290505983
141.3578 1586.2129 772 4289915391
142.53578 1586.2129 772 4290046975
143.71376 1586.2129 772 4290111999
144.66606 1586.0973 771 4290111999
145.84221 1586.0973 771 4289849343
147.24771 1586.2129 772 4290244095
148.42569 1586.2129 772 4291293951
-44.484406 1584.5798 768 4280817421
-43.313763 1584.5798 768 4280686092
-42.14312 1584.5798 768 4281471006
-40.972477 1584.5798 768 4281865764
-39.801834 1584.5798 768 4281603109
-38.631191 1584.5798 768 4281339681
-37.460552 1584.5798 768 4281273626
-36.289909 1584.5798 768 4281339420
-35.119267 1584.5798 768 4281208081
-34.055046 1584.8074 770 4280945166
-32.777981 1584.5798 768 4281274378
-31.60734 1584.5798 768 4280748034
-30.436697 1584.5798 768 4280158464
-29.220184 1584.4661 767 4281408528
135.88991 1585.2623 774 4290177791
137.07156 1585.2623 774 4290505983
138.03853 1585.1487 773 4290505983
139.00183 1585.0349 772 4290111999
139.96147 1584.9211 771 4290243839
141.13762 1584.9211 771 4289653247
142.31377 1584.9211 771 4289784831
143.48991 1584.9211 771 4289915903
144.66606 1584.9211 771 4290113279
145.84221 1584.9211 771 4289915903
147.01834 1584.9211 771 4287876596
148.42569 1585.0349 772 4288006399
-43.245872 1583.2972 767 4281141775
-42.077065 1583.2972 767 4280881960
-40.908257 1583.2972 767 4282921799
-39.739449 1583.2972 767 4282853394
-38.570641 1583.2972 767 4281142784
-37.401836 1583.2972 767 4281273377
-36.233028 1583.2972 767 4281273377
-35.06422 1583.2972 767 4281207568
-33.948624 1583.4092 768 4281207568
-32.777981 1583.4092 768 4281339668
-31.60734 1583.4092 768 4280418566
-30.38899 1583.2972 767 4280486923
-29.220184 1583.2972 767 4287066223
-28.051376 1583.2972 767 4286414232
135.67889 1583.9688 773 4290310143
136.85872 1583.9688 773 4290374143
137.82385 1583.8569 772 4290374143
138.78532 1583.745 771 4290111999
139.96147 1583.745 771 4290506751
141.13762 1583.745 771 4290309887
142.31377 1583.745 771 4290309887
143.48991 1583.745 771 4290440703
144.66606 1583.745 771 4290901247
145.84221 1583.745 771 4290241791
147.01834 1583.745 771 4280701825
148.19449 1583.745 771 4278190716
-43.245872 1582.1284 767 4280686092
-42.077065 1582.1284 767 4280294173
-40.908257 1582.1284 767 4281741875
-39.739449 1582.1284 767 4282001711
-38.570641 1582.1284 767 4280620058
-37.401836 1582.1284 767 4281600289
-36.233028 1582.1284 767 4281731875
-35.06422 1582.1284 767 4281273865
-33.895412 1582.1284 767 4281536781
-32.726604 1582.1284 767 4281472023
-31.557798 1582.1284 767 4279959552
-30.38899 1582.1284 767 4280813568
-29.220184 1582.1284 767 4288050792
-28.051376 1582.1284 767 4287727778
-26.882568 1582.1284 767 4286609297
136.85872 1582.7889 773 4290046207
137.60918 1582.5688 771 4290177791
138.5688 1582.4587 770 4290111999
139.74312 1582.4587 770 4290111999
140.91743 1582.4587 770 4289981183
142.09174 1582.4587 770 4289981183
143.26605 1582.4587 770 4289587199
144.44037 1582.4587 770 4290311167
145.61469 1582.4587 770 4291290367
146.78899 1582.4587 770 4283000469
147.9633 1582.4587 770 4278190157
-42.011009 1580.8513 766 4280884261
-40.844036 1580.8513 766 4281476398
-39.677063 1580.8513 766 4282458668
-38.51009 1580.8513 766 4281800482
-37.343121 1580.8513 766 4281273377
-36.176147 1580.8513 766 4281075998
-35.009174 1580.8513 766 4281140736
-33.842201 1580.8513 766 4281535234
-32.675228 1580.8513 766 4281141021
-31.557798 1580.9596 767 4279762952
-30.341284 1580.8513 766 4278255616
-29.174313 1580.8513 766 4285952357
-28.007339 1580.8513 766 4287005588
-26.840366 1580.8513 766 4286676623
135.25688 1581.3927 771 4289849599
136.43303 1581.3927 771 4289915391
137.3945 1581.2844 770 4290244095
138.13577 1581.0679 768 4290046207
139.30643 1581.0679 768 4289914879
140.47707 1581.0679 768 4289915903
141.64771 1581.0679 768 4289915903
142.81834 1581.0679 768 4289652735
143.989 1581.0679 768 4290441983
145.15964 1581.0679 768 4292013311
146.33028 1581.0679 768 4285302445
147.26973 1580.9596 767 4278196108
-42.011009 1579.6844 766 4281474601
-40.844036 1579.6844 766 4282066739
-39.677063 1579.6844 766 4282655546
-38.449543 1579.578 765 4282063408
-37.284405 1579.578 765 4281273377
-36.119267 1579.578 765 4281010205
-34.954128 1579.578 765 4281469193
-33.842201 1579.6844 766 4281206021
-32.623852 1579.578 765 4280418312
-31.508257 1579.6844 766 4281141012
-30.293577 1579.578 765 4278198341
-29.174313 1579.6844 766 4283529629
-27.963303 1579.578 765 4285562004
-26.840366 1579.6844 766 4285298831
136.22018 1580.1101 770 4289718527
137.3945 1580.1101 770 4289981439
138.13577 1579.8972 768 4289719039
139.08807 1579.7908 767 4289719039
140.25688 1579.7908 767 4289981695
141.42569 1579.7908 767 4289915903
142.5945 1579.7908 767 4289784319
143.76331 1579.7908 767 4290442239
145.15964 1579.8972 768 4292342271
146.10092 1579.7908 767 4286289336
147.03853 1579.6844 766 4280173975
-41.944954 1578.4128 765 4281474864
-40.779816 1578.4128 765 4282132795
-39.614677 1578.4128 765 4282198588
-38.388992 1578.3082 764 4281606451
-37.225689 1578.3082 764 4281206312
-36.062386 1578.3082 764 4280811810
-34.899082 1578.3082 764 4281074185
-33.735779 1578.3082 764 4280352768
-32.623852 1578.4128 765 4278714371
-31.458715 1578.4128 765 4285883248
-30.245872 1578.3082 764 4287600519
-29.082569 1578.3082 764 4287797641
-27.831192 1578.0991 762 4285366673
-26.67156 1578.0991 762 4282866795
134.41284 1578.6221 767 4290309887
136.64587 1579.1449 772 4289981183
136.96513 1578.7266 768 4290178303
137.91927 1578.6221 767 4289653247
139.08807 1578.6221 767 4289850879
140.25688 1578.6221 767 4290244351
141.42569 1578.6221 767 4290244351
142.37064 1578.5175 766 4289915391
143.53761 1578.5175 766 4290441727
144.70459 1578.5175 766 4292014335
145.87157 1578.5175 766 4288132825
147.03853 1578.5175 766 4280638397
-41.878899 1577.1449 764 4281540394
-40.715595 1577.1449 764 4282790461
-39.552292 1577.1449 764 4282791504
-38.388992 1577.1449 764 4282133831
-37.225689 1577.1449 764 4282456911
-36.062386 1577.1449 764 4280614963
-34.899082 1577.1449 764 4280877056
-33.735779 1577.1449 764 4280418304
-32.572475 1577.1449 764 4278190084
-31.409174 1577.1449 764 4286742920
-30.150459 1576.9395 762 4287209645
-28.990826 1576.9395 762 4286485921
-27.831192 1576.9395 762 4284973189
-26.67156 1576.9395 762 4284841347
133.24403 1577.4532 767 4289981695
134.20183 1577.3505 766 4289981695
135.3688 1577.3505 766 4289981183
136.53578 1577.3505 766 4290046975
137.70276 1577.3505 766 4289259775
138.86972 1577.3505 766 4289654527
140.0367 1577.3505 766 4290178559
141.20367 1577.3505 766 4289981439
142.37064 1577.3505 766 4289915391
143.31192 1577.2477 765 4290309887
144.70459 1577.3505 766 4291751679
145.87157 1577.3505 766 4289186029
146.80734 1577.2477 765 4283794123
147.97247 1577.2477 765 4278190152
-41.878899 1575.9817 764 4281606953
-40.587154 1575.7798 762 4282988606
-39.552292 1575.9817 764 4283648083
-38.267891 1575.7798 762 4284174683
-37.108257 1575.7798 762 4283516787
-35.948624 1575.7798 762 4280227137
-34.78899 1575.7798 762 4278648832
-33.629356 1575.7798 762 4281474842
-32.469727 1575.7798 762 4282661735
-31.310091 1575.7798 762 4287004073
-30.102753 1575.679 761 4287534221
-28.944954 1575.679 761 4287270793
-27.787155 1575.679 761 4287664506
-26.629358 1575.679 761 4289506710
132.82568 1576.0825 765 4290046975
133.99083 1576.0825 765 4289915391
135.15596 1576.0825 765 4289981183
136.32111 1576.0825 765 4290375935
137.48624 1576.0825 765 4290244351
138.65138 1576.0825 765 4290375935
139.81651 1576.0825 765 4289653247
140.98166 1576.0825 765 4289587455
142.14679 1576.0825 765 4290046207
143.31192 1576.0825 765 4290243583
144.47707 1576.0825 765 4291423999
145.6422 1576.0825 765 4289384437
146.80734 1576.0825 765 4286882774
147.97247 1576.0825 765 4278190126
-41.746788 1574.6202 762 4281672746
-40.587154 1574.6202 762 4282462262
-39.427525 1574.6202 762 4283189081
-38.267891 1574.6202 762 4284241769
-37.108257 1574.6202 762 4284569743
-35.948624 1574.6202 762 4280161613
-34.78899 1574.6202 762 4278779904
-33.629356 1574.6202 762 4282394658
-32.469727 1574.6202 762 4285622388
-31.310091 1574.6202 762 4286938248
-30.102753 1574.5211 761 4285035371
-28.944954 1574.5211 761 4286022266
-27.787155 1574.5211 761 4287334530
-26.629358 1574.5211 761 4288057997
136.05138 1578.1871 798 4290571007
131.45322 1574.8184 764 4290440447
132.61652 1574.8184 764 4290046975
133.99083 1574.9175 765 4289981183
135.15596 1574.9175 765 4290046975
136.32111 1574.9175 765 4290310143
137.48624 1574.9175 765 4289785599
138.65138 1574.9175 765 4289851391
139.81651 1574.9175 765 4289259775
140.98166 1574.9175 765 4289325567
142.14679 1574.9175 765 4290046207
143.31192 1574.9175 765 4290375423
144.47707 1574.9175 765 4291162111
145.6422 1574.9175 765 4290174975
146.80734 1574.9175 765 4286624255
-41.746788 1573.4606 762 4281475366
-40.587154 1573.4606 762 4282265139
-39.427525 1573.4606 762 4283450442
-38.267891 1573.4606 762 4284963681
-37.108257 1573.4606 762 4284767624
-35.891743 1573.3633 761 4281412181
-34.733944 1573.3633 761 4278190086
-33.576145 1573.3633 761 4282667102
-32.41835 1573.3633 761 4286612088
-31.26055 1573.3633 761 4286546039
-30.102753 1573.3633 761 4285560138
-28.944954 1573.3633 761 4283586348
-27.787155 1573.3633 761 4283980893
-26.629358 1573.3633 761 4284704872
-25.47156 1573.3633 761 4285229179
131.45322 1573.655 764 4290375935
132.61652 1573.655 764 4290375679
133.77982 1573.655 764 4290375679
134.94312 1573.655 764 4290309631
136.10641 1573.655 764 4290507007
137.26973 1573.655 764 4289981695
137.99634 1573.4606 762 4290047743
139.59633 1573.655 764 4289784319
140.75963 1573.655 764 4289784319
141.92294 1573.655 764 4290046207
143.31192 1573.7523 765 4290243583
144.47707 1573.7523 765 4290899455
145.6422 1573.7523 765 4290307071
146.80734 1573.7523 765 4288593151
-41.746788 1572.3009 762 4281277992
-40.587154 1572.3009 762 4281672494
-39.427525 1572.3009 762 4283054664
-38.267891 1572.3009 762 4285160041
-37.049541 1572.2056 761 4285029266
-35.891743 1572.2056 761 4280752720
-34.733944 1572.2056 761 4278191104
-33.576145 1572.2056 761 4284907110
-32.41835 1572.2056 761 4286288265
-31.26055 1572.2056 761 4286156423
-30.102753 1572.2056 761 4286610791
-28.944954 1572.2056 761 4284373829
-27.787155 1572.2056 761 4283587423
-26.629358 1572.2056 761 4284574318
-25.47156 1572.2056 761 4283982988
131.45322 1572.4917 764 4290638335
132.82568 1572.5872 765 4290179839
133.77982 1572.4917 764 4290179839
134.94312 1572.4917 764 4290244351
135.67706 1572.3009 762 4290310143
136.8367 1572.3009 762 4290309887
137.99634 1572.3009 762 4290309887
139.15596 1572.3009 762 4289981183
140.09358 1572.2056 761 4289981183
141.47523 1572.3009 762 4289783551
143.08624 1572.4917 764 4289915135
144.24954 1572.4917 764 4290637311
145.6422 1572.5872 765 4290966527
146.80734 1572.5872 765 4289252607
-40.587154 1571.1412 762 4281211693
-39.427525 1571.1412 762 4282265139
-38.20734 1571.0477 761 4285291361
-37.049541 1571.0477 761 4284831873
-35.891743 1571.0477 761 4279962934
-34.678898 1570.9541 760 4280485919
-33.522934 1570.9541 760 4288249749
-32.366974 1570.9541 760 4288383866
-31.21101 1570.9541 760 4287660399
-30.055046 1570.9541 760 4285953597
-28.899082 1570.9541 760 4283979807
-27.787155 1571.0477 761 4284244072
-26.629358 1571.0477 761 4286743949
-25.47156 1571.0477 761 4286215322
131.45322 1571.3285 764 4290638335
132.19817 1571.1412 762 4290572543
133.3578 1571.1412 762 4290572543
134.51743 1571.1412 762 4290309887
135.67706 1571.1412 762 4290243839
136.62018 1571.0477 761 4290309887
137.77798 1571.0477 761 4290375679
138.93578 1571.0477 761 4290046975
140.09358 1571.0477 761 4290244351
141.25137 1571.0477 761 4290308863
142.40918 1571.0477 761 4290308863
144.24954 1571.3285 764 4290638335
145.41284 1571.3285 764 4290967039
146.57614 1571.3285 764 4290238207
-40.587154 1569.9817 762 4281932324
-39.365139 1569.8899 761 4281017644
-38.20734 1569.8899 761 4284307294
-37.049541 1569.8899 761 4284240780
-35.834862 1569.7982 760 4280030028
-34.678898 1569.7982 760 4282843157
-33.469727 1569.7064 759 4290672268
-32.315598 1569.7064 759 4288121745
-31.111927 1569.6146 758 4285818990
-30.055046 1569.7982 760 4279647004
-28.899082 1569.7982 760 4279581211
-27.74312 1569.7982 760 4281218359
-26.629358 1569.8899 761 4284442216
-25.431192 1569.7982 760 4285559173
-24.275229 1569.7982 760 4283716969
131.03853 1569.9817 762 4290309631
131.989 1569.8899 761 4289915391
133.14679 1569.8899 761 4290244095
134.30458 1569.8899 761 4290178559
135.46239 1569.8899 761 4290047231
136.40367 1569.7982 760 4289849343
137.55963 1569.7982 760 4290244095
138.93578 1569.8899 761 4290178559
139.87157 1569.7982 760 4290244351
141.02753 1569.7982 760 4289981695
142.40918 1569.8899 761 4289981695
143.79449 1569.9817 762 4290376191
144.95413 1569.9817 762 4290770943
-40.587154 1568.822 762 4281277992
-39.365139 1568.7321 761 4281804086
-38.20734 1568.7321 761 4285882996
-36.990826 1568.6422 760 4286078842
-35.777981 1568.5522 759 4281407539
-34.623852 1568.5522 759 4282187781
-33.416515 1568.4624 758 4285937470
-32.264221 1568.4624 758 4284037221
-31.111927 1568.4624 758 4281866309
-30.007339 1568.5522 759 4278648848
-28.85321 1568.5522 759 4278911252
-27.74312 1568.6422 760 4279239424
-26.587156 1568.6422 760 4279371008
-25.431192 1568.6422 760 4280356107
-24.275229 1568.6422 760 4280553486
129.87891 1568.822 762 4290309887
131.03853 1568.822 762 4290704383
131.989 1568.7321 761 4290703359
133.14679 1568.7321 761 4290966783
134.30458 1568.7321 761 4290572287
135.24771 1568.6422 760 4290506495
136.40367 1568.6422 760 4290309887
137.55963 1568.6422 760 4290638591
138.71559 1568.6422 760 4290966015
139.87157 1568.6422 760 4291031807
141.25137 1568.7321 761 4290046975
142.63486 1568.822 762 4290046975
143.79449 1568.822 762 4290310399
-36.93211 1567.3982 759 4286144650
-35.7211 1567.3101 758 4282065485
-34.568806 1567.3101 758 4281140226
-33.416515 1567.3101 758 4281600777
-32.264221 1567.3101 758 4281338155
-31.062386 1567.222 757 4280746017
-29.959633 1567.3101 758 4281598983
-28.807339 1567.3101 758 4281861898
-27.655046 1567.3101 758 4281992705
-26.544954 1567.3982 759 4281992705
-25.390825 1567.3982 759 4281532939
-24.198166 1567.3101 758 4281795855
-23.045872 1567.3101 758 4281536803
130.62386 1567.4862 760 4290114559
131.77982 1567.4862 760 4290113535
132.93578 1567.4862 760 4290179327
134.09174 1567.4862 760 4290375679
135.03302 1567.3982 759 4290309887
136.18715 1567.3982 759 4289588223
137.34128 1567.3982 759 4289917183
138.49541 1567.3982 759 4289981695
139.64954 1567.3982 759 4290113279
140.57982 1567.3101 758 4289784319
142.40918 1567.5743 761 4290047487
143.56697 1567.5743 761 4290309631
144.95413 1567.6624 762 4290967551
-36.93211 1566.244 759 4285027441
-35.7211 1566.1578 758 4282000707
-34.568806 1566.1578 758 4281271565
-33.363304 1566.0715 757 4281666322
-32.212845 1566.0715 757 4280879107
-30.963303 1565.899 755 4281273865
-29.911926 1566.0715 757 4281405213
-28.761467 1566.0715 757 4281207833
-27.61101 1566.0715 757 4281140226
-26.46055 1566.0715 757 4281206275
-25.350458 1566.1578 758 4281271317
-24.198166 1566.1578 758 4281468439
-23.045872 1566.1578 758 4281338918
130.41652 1566.244 759 4290508287
131.77982 1566.3303 760 4290375679
132.72478 1566.244 759 4290243839
133.87891 1566.244 759 4290178047
134.81834 1566.1578 758 4290309887
135.97064 1566.1578 758 4290309887
137.12294 1566.1578 758 4290309887
138.27522 1566.1578 758 4290308863
139.87157 1566.3303 760 4290440447
141.02753 1566.3303 760 4290308863
142.40918 1566.4165 761 4290572031
143.56697 1566.4165 761 4290178559
144.72478 1566.4165 761 4290441727
-36.873394 1565.0055 758 4283977840
-35.664219 1564.9211 757 4281214534
-34.51376 1564.9211 757 4281403664
-33.363304 1564.9211 757 4281864215
-32.212845 1564.9211 757 4281405965
-30.913761 1564.6678 754 4281077000
-29.816513 1564.7523 755 4281076230
-28.623854 1564.6678 754 4280615680
-27.478899 1564.6678 754 4280614912
-26.376146 1564.7523 755 4281403392
-25.229359 1564.7523 755 4281667630
-24.159634 1564.9211 757 4281207079
-23.009174 1564.9211 757 4280878355
129.05688 1565.0055 758 4290178559
130.20917 1565.0055 758 4290441727
131.57065 1565.09 759 4290638335
132.51376 1565.0055 758 4290440959
133.66606 1565.0055 758 4290440703
134.60367 1564.9211 757 4290506495
135.97064 1565.0055 758 4290572287
137.12294 1565.0055 758 4290506495
138.27522 1565.0055 758 4290046207
139.42752 1565.0055 758 4290243583
140.57982 1565.0055 758 4290308351
141.73212 1565.0055 758 4290505727
142.8844 1565.0055 758 4290047743
-36.873394 1563.8533 758 4283119192
-35.664219 1563.7706 757 4281342781
-34.51376 1563.7706 757 4281205771
-33.256882 1563.6055 755 4280483840
-32.110092 1563.6055 755 4279959552
-30.913761 1563.5229 754 4280090624
-29.768806 1563.5229 754 4279369744
-28.577982 1563.4404 753 4281209644
-27.434862 1563.4404 753 4282266391
-26.333944 1563.5229 754 4285095490
-25.188992 1563.5229 754 4286079346
-24.044037 1563.5229 754 4284697693
-22.93578 1563.6055 755 4283050752
-21.858715 1563.7706 757 4281142528
127.90459 1563.8533 758 4290704639
129.05688 1563.8533 758 4289981695
130.00183 1563.7706 757 4290179327
131.36147 1563.8533 758 4290703359
132.30275 1563.7706 757 4290637567
133.45322 1563.7706 757 4290309887
134.60367 1563.7706 757 4290638591
135.75414 1563.7706 757 4290375679
136.90459 1563.7706 757 4290309887
138.05504 1563.7706 757 4290308863
139.20551 1563.7706 757 4290440447
140.35596 1563.7706 757 4290308351
141.50642 1563.7706 757 4290308351
142.65688 1563.7706 757 4290046975
-36.873394 1562.7009 758 4282725459
-35.664219 1562.6202 757 4280883255
-34.51376 1562.6202 757 4281073681
-33.256882 1562.4587 755 4281205267
-32.058716 1562.3779 754 4281270308
-30.86422 1562.2972 753 4282914622
-29.721102 1562.2972 753 4283448080
-28.577982 1562.2972 753 4284961575
-27.434862 1562.2972 753 4284769130
-26.291742 1562.2972 753 4285821818
-25.148624 1562.2972 753 4287463311
-24.044037 1562.3779 754 4283844696
-22.899082 1562.3779 754 4283311143
-21.858715 1562.6202 757 4281140230
127.29358 1562.4587 755 4290375679
128.85138 1562.6202 757 4289785087
130.00183 1562.6202 757 4290179839
131.1523 1562.6202 757 4290703359
132.30275 1562.6202 757 4290703359
133.45322 1562.6202 757 4290506495
134.17432 1562.4587 755 4290506495
135.32111 1562.4587 755 4290047743
136.4679 1562.4587 755 4290113535
137.61469 1562.4587 755 4290178559
138.76147 1562.4587 755 4290244351
139.90826 1562.4587 755 4290111999
141.05504 1562.4587 755 4290111999
-36.873394 1561.5486 758 4281606199
-35.550457 1561.3119 755 4280553511
-34.403671 1561.3119 755 4281866275
-33.203671 1561.233 754 4288643211
-32.058716 1561.233 754 4289040560
-30.86422 1561.1542 753 4289566904
-29.721102 1561.1542 753 4288976016
-28.53211 1561.0752 752 4289963168
-27.390825 1561.0752 752 4288058780
-26.249542 1561.0752 752 4286216576
-25.148624 1561.1542 753 4285230435
-24.005505 1561.1542 753 4280624925
-22.862385 1561.1542 753 4280552734
-21.754128 1561.233 754 4279960597
125.94495 1561.233 754 4290638335
127.0899 1561.233 754 4290506751
128.44037 1561.3119 755 4289981439
129.58716 1561.3119 755 4290639103
130.73395 1561.3119 755 4291097855
131.88074 1561.3119 755 4291097855
133.02753 1561.3119 755 4290505983
134.17432 1561.3119 755 4290440191
135.32111 1561.3119 755 4290309887
136.4679 1561.3119 755 4290507007
137.61469 1561.3119 755 4290178047
138.76147 1561.3119 755 4290309631
139.6844 1561.233 754 4290702591
141.05504 1561.3119 755 4290702591
-36.814678 1560.3192 757 4281474099
-35.550457 1560.1652 755 4280224033
-34.348625 1560.0881 754 4281606953
-33.150459 1560.011 753 4288252046
-32.007339 1560.011 753 4289175480
-30.86422 1560.011 753 4288648880
-29.721102 1560.011 753 4287927696
-28.53211 1559.934 752 4288125075
-27.390825 1559.934 752 4287600291
-26.249542 1559.934 752 4287139740
-25.108257 1559.934 752 4283263378
-23.966972 1559.934 752 4279973728
-22.862385 1560.011 753 4281009685
-21.719267 1560.011 753 4280812562
125.94495 1560.0881 754 4290572799
126.88624 1560.011 753 4290572799
128.23486 1560.0881 754 4290374911
129.37982 1560.0881 754 4290769407
130.52477 1560.0881 754 4290244351
131.66972 1560.0881 754 4290376191
132.81468 1560.0881 754 4290374655
133.95964 1560.0881 754 4290440447
135.10458 1560.0881 754 4290506495
136.24954 1560.0881 754 4290440703
137.3945 1560.0881 754 4289784575
138.53944 1560.0881 754 4290113279
139.46056 1560.011 753 4290768383
-36.638531 1558.9431 754 4281668651
-35.49358 1558.9431 754 4280681756
-34.348625 1558.9431 754 4279442464
-33.150459 1558.8679 753 4286021764
-32.007339 1558.8679 753 4287861397
-30.86422 1558.8679 753 4287598481
-29.673395 1558.7926 752 4286811016
-28.53211 1558.7926 752 4286744967
-27.346788 1558.7174 751 4286549384
-26.249542 1558.7926 752 4287075728
-25.108257 1558.7926 752 4284839604
-23.966972 1558.7926 752 4283392158
-22.825687 1558.7926 752 4281017923
-21.684404 1558.7926 752 4279438891
-20.609175 1558.9431 754 4281469441
124.6 1558.8679 753 4290967295
125.74312 1558.8679 753 4290967039
126.68257 1558.7926 752 4290900991
128.02936 1558.8679 753 4290703359
129.17247 1558.8679 753 4291163903
130.52477 1558.9431 754 4290637567
131.45871 1558.8679 753 4290505983
132.60184 1558.8679 753 4290440191
133.74495 1558.8679 753 4290966527
134.88808 1558.8679 753 4291097599
136.03119 1558.8679 753 4290966015
137.17432 1558.8679 753 4290507263
138.31743 1558.8679 753 4290770431
-35.436699 1557.7247 753 4281010203
-34.293579 1557.7247 753 4278195989
-33.150459 1557.7247 753 4283003503
-32.007339 1557.7247 753 4283198094
-30.814678 1557.6514 752 4283922073
-29.673395 1557.6514 752 4284183668
-28.53211 1557.6514 752 4283854704
-27.346788 1557.578 751 4282144614
-26.20734 1557.578 751 4282934131
-25.06789 1557.578 751 4284181116
-23.92844 1557.578 751 4283983993
-22.78899 1557.578 751 4282007905
-21.614679 1557.5046 750 4278652205
-20.444036 1557.4312 749 4281074433
-19.308256 1557.4312 749 4281995535
123.25871 1557.6514 752 4289718783
124.4 1557.6514 752 4290376447
125.54128 1557.6514 752 4290835455
126.68257 1557.6514 752 4290638335
127.82385 1557.6514 752 4289981183
129.17247 1557.7247 753 4290310143
130.3156 1557.7247 753 4290637567
131.24771 1557.6514 752 4290637567
132.38899 1557.6514 752 4290374655
133.53027 1557.6514 752 4290769407
134.67155 1557.6514 752 4290375679
136.03119 1557.7247 753 4290375679
137.17432 1557.7247 753 4289982719
138.31743 1557.7247 753 4290245631
-35.49358 1556.6532 754 4280026901
-34.293579 1556.5817 753 4278194450
-33.150459 1556.5817 753 4285300351
-31.955963 1556.5101 752 4286613926
-30.814678 1556.5101 752 4285890203
-29.673395 1556.5101 752 4285036943
-28.486238 1556.4385 751 4285168528
-27.302752 1556.3669 750 4283390880
-26.165138 1556.3669 750 4282338192
-25.027523 1556.3669 750 4283522088
-23.889908 1556.3669 750 4286482774
-22.752293 1556.3669 750 4286871912
-21.579817 1556.2954 749 4279305728
-20.444036 1556.2954 749 4280418304
-19.308256 1556.2954 749 4281864719
-18.201836 1556.3669 750 4281733383
121.9211 1556.4385 751 4291031295
123.06055 1556.4385 751 4290768639
124.4 1556.5101 752 4290899967
125.54128 1556.5101 752 4290769407
126.4789 1556.4385 751 4290703359
127.82385 1556.5101 752 4290505983
128.96513 1556.5101 752 4290440191
130.10641 1556.5101 752 4290505983
131.24771 1556.5101 752 4290966527
132.38899 1556.5101 752 4290966015
133.53027 1556.5101 752 4290966015
134.67155 1556.5101 752 4290572543
135.81285 1556.5101 752 4290638335
136.95413 1556.5101 752 4290507263
138.09541 1556.5101 752 4290704639
-35.436699 1555.4385 753 4280485128
-34.293579 1555.4385 753 4280159507
-33.150459 1555.4385 753 4287725702
-31.955963 1555.3688 752 4287860161
-30.814678 1555.3688 752 4287070389
-29.625689 1555.2991 751 4286939534
-28.486238 1555.2991 751 4286741898
-27.302752 1555.2294 750 4287333272
-26.165138 1555.2294 750 4286214791
-24.987156 1555.1597 749 4285031798
-23.851376 1555.1597 749 4287203223
-22.715597 1555.1597 749 4287201173
-21.579817 1555.1597 749 4279174427
-20.411009 1555.09 748 4280221696
-19.277063 1555.09 748 4281864719
-18.14312 1555.09 748 4281471758
-17.036697 1555.1597 749 4281274378
120.78165 1555.2991 751 4290702847
121.9211 1555.2991 751 4290965759
123.06055 1555.2991 751 4290966015
124.2 1555.2991 751 4290768639
125.33945 1555.2991 751 4290243839
126.4789 1555.2991 751 4290375679
127.61835 1555.2991 751 4290702847
128.96513 1555.3688 752 4290702847
130.10641 1555.3688 752 4289915903
131.0367 1555.2991 751 4290376447
132.17615 1555.2991 751 4290769663
133.3156 1555.2991 751 4290638335
134.67155 1555.3688 752 4290375679
135.81285 1555.3688 752 4290375679
136.95413 1555.3688 752 4290178047
-34.293579 1554.2954 753 4279504143
-33.150459 1554.2954 753 4287530889
-31.955963 1554.2275 752 4288255434
-30.765137 1554.1597 751 4288321228
-29.625689 1554.1597 751 4285755523
-28.486238 1554.1597 751 4283321182
-27.302752 1554.0918 750 4283456144
-26.122936 1554.0238 749 4286614207
-24.987156 1554.0238 749 4287598759
-23.851376 1554.0238 749 4288388274
-22.715597 1554.0238 749 4287068805
-21.544954 1553.9559 748 4279239438
-20.411009 1553.9559 748 4280287232
-19.277063 1553.9559 748 4282061845
-18.14312 1553.9559 748 4281472023
-17.009174 1553.9559 748 4281406230
-15.875229 1553.9559 748 4281405717
119.44954 1554.0918 750 4291031295
120.58716 1554.0918 750 4291031295
121.72477 1554.0918 750 4291228415
122.86239 1554.0918 750 4290769151
124 1554.0918 750 4290834943
125.13761 1554.0918 750 4290703359
126.27523 1554.0918 750 4290834943
127.41284 1554.0918 750 4291228159
128.7578 1554.1597 751 4291228159
129.89725 1554.1597 751 4290440703
131.0367 1554.1597 751 4290638335
132.17615 1554.1597 751 4290638335
133.3156 1554.1597 751 4290572543
134.67155 1554.2275 752 4290506495
135.81285 1554.2275 752 4290506495
136.95413 1554.2275 752 4290374911
-33.044037 1553.0201 751 4285033303
-31.904587 1553.0201 751 4287073680
-30.765137 1553.0201 751 4287073680
-29.577982 1552.9541 750 4285493630
-28.440367 1552.9541 750 4282862167
-27.258715 1552.8881 749 4280498468
-26.122936 1552.8881 749 4285696115
-24.946789 1552.822 748 4286483639
-23.812843 1552.822 748 4286417846
-22.6789 1552.822 748 4286346098
-21.544954 1552.822 748 4278977282
-20.411009 1552.822 748 4280549376
-19.277063 1552.822 748 4282323986
-18.14312 1552.822 748 4281603609
-17.009174 1552.822 748 4281537816
-15.823853 1552.6899 746 4281405965
-14.693578 1552.6899 746 4281537551
119.44954 1552.9541 750 4291031807
120.58716 1552.9541 750 4290967039
121.72477 1552.9541 750 4290900991
122.86239 1552.9541 750 4290178559
123.8 1552.8881 749 4290507775
125.13761 1552.9541 750 4290966015
126.07156 1552.8881 749 4290899967
127.20734 1552.8881 749 4290637567
128.55046 1552.9541 750 4290637567
129.68808 1552.9541 750 4290309887
130.82568 1552.9541 750 4290572799
132.17615 1553.0201 751 4290507007
133.3156 1553.0201 751 4290375679
134.45505 1553.0201 751 4290309887
-31.955963 1551.9449 752 4287134208
-30.715597 1551.8165 750 4288844809
-29.577982 1551.8165 750 4287991440
-28.440367 1551.8165 750 4287004545
-27.258715 1551.7523 749 4285561976
-26.122936 1551.7523 749 4287601559
-24.946789 1551.6881 748 4287931056
-23.812843 1551.6881 748 4285101957
-22.6789 1551.6881 748 4282139963
-21.544954 1551.6881 748 4278190080
-20.411009 1551.6881 748 4279173120
-19.277063 1551.6881 748 4280816144
-18.084404 1551.5596 746 4281405213
-16.954128 1551.5596 746 4281339420
-15.823853 1551.5596 746 4281534986
-14.693578 1551.5596 746 4281666572
-13.563303 1551.5596 746 4281339668
116.79633 1551.6881 748 4291426047
117.93027 1551.6881 748 4291293951
120.19817 1551.6881 748 4291032063
121.52844 1551.7523 749 4290966015
122.66422 1551.7523 749 4290637567
123.6 1551.6881 748 4290900735
124.93578 1551.7523 749 4290965503
126.07156 1551.7523 749 4290965503
127.00183 1551.6881 748 4290505983
128.34312 1551.7523 749 4290505983
129.4789 1551.7523 749 4290309887
130.61469 1551.7523 749 4290704383
131.9633 1551.8165 750 4290638335
133.10092 1551.8165 750 4290638335
134.45505 1551.8807 751 4290572543
-28.440367 1550.679 750 4286807164
-27.258715 1550.6165 749 4284907875
-26.122936 1550.6165 749 4287210630
-24.946789 1550.5541 748 4288327117
-23.812843 1550.5541 748 4284642966
-22.6789 1550.5541 748 4279184384
-21.544954 1550.5541 748 4280039682
-20.344954 1550.4293 746 4282132306
-19.21468 1550.4293 746 4281671755
-18.084404 1550.4293 746 4280878603
-16.926605 1550.3669 745 4281273361
-15.823853 1550.4293 746 4281666836
-14.669724 1550.3669 745 4281732629
-13.541285 1550.3669 745 4281405717
-12.39266 1550.3046 744 4281405717
116.79633 1550.5541 748 4291031807
119.06422 1550.5541 748 4290769663
120.19817 1550.5541 748 4290769407
121.33211 1550.5541 748 4290703359
122.46606 1550.5541 748 4290768639
123.6 1550.5541 748 4290899967
124.73395 1550.5541 748 4290636799
125.86789 1550.5541 748 4290768383
127.00183 1550.5541 748 4290637567
128.13577 1550.5541 748 4290505983
129.26973 1550.5541 748 4290375679
130.61469 1550.6165 749 4290507007
131.75046 1550.6165 749 4290113535
132.88625 1550.6165 749 4290376447
134.23853 1550.679 750 4290376191
-28.394495 1549.4807 749 4283910950
-27.258715 1549.4807 749 4286745932
-26.080734 1549.4202 748 4288456550
-24.946789 1549.4202 748 4288786624
-23.735781 1549.2991 746 4286155160
-22.605505 1549.2991 746 4285693031
-21.475229 1549.2991 746 4286943097
-20.311926 1549.2385 745 4286346109
-19.183487 1549.2385 745 4282004028
-18.055046 1549.2385 745 4281800192
-16.926605 1549.2385 745 4281339648
-15.798165 1549.2385 745 4281405213
-14.669724 1549.2385 745 4281405213
-13.519266 1549.178 744 4281405717
-12.39266 1549.178 744 4281471510
117.93027 1549.4202 748 4290966015
119.06422 1549.4202 748 4290966015
120.19817 1549.4202 748 4290638335
121.33211 1549.4202 748 4290572543
122.46606 1549.4202 748 4290702847
123.6 1549.4202 748 4290702847
124.73395 1549.4202 748 4290637055
125.86789 1549.4202 748 4290702847
127.00183 1549.4202 748 4290505983
128.13577 1549.4202 748 4290505983
129.26973 1549.4202 748 4290506495
130.40367 1549.4202 748 4290572287
131.75046 1549.4807 749 4290572287
132.88625 1549.4807 749 4290901247
-27.21468 1548.2863 748 4287339168
-26.080734 1548.2863 748 4287404961
-24.946789 1548.2863 748 4288654261
-23.735781 1548.1688 746 4285890955
-22.568808 1548.1101 745 4284317524
-21.440367 1548.1101 745 4285699176
-20.278898 1548.0514 744 4285627558
-19.152294 1548.0514 744 4283127424
-18.025688 1548.0514 744 4281936199
-16.899082 1548.0514 744 4280027946
-15.772477 1548.0514 744 4281403664
-14.645871 1548.0514 744 4281864215
-13.519266 1548.0514 744 4281471510
-12.39266 1548.0514 744 4281339668
-11.266055 1548.0514 744 4281340172
115.66238 1548.2863 748 4290835199
116.79633 1548.2863 748 4290835199
117.54862 1548.1688 746 4290835199
118.6789 1548.1688 746 4290966783
119.80917 1548.1688 746 4290967039
120.93945 1548.1688 746 4290835199
122.06973 1548.1688 746 4290506495
123.2 1548.1688 746 4290572287
124.33028 1548.1688 746 4290702847
125.46055 1548.1688 746 4290702847
126.59083 1548.1688 746 4290505983
127.7211 1548.1688 746 4290505983
129.26973 1548.2863 748 4290703359
130.40367 1548.2863 748 4290703359
131.53761 1548.2863 748 4290572799
-27.21468 1547.1523 748 4286216617
-26.080734 1547.1523 748 4283387518
-24.866055 1547.0386 746 4279648830
-23.697248 1546.9817 745 4278201127
-22.568808 1546.9817 745 4284706333
-21.405504 1546.9248 744 4287272260
-20.278898 1546.9248 744 4287270813
-19.152294 1546.9248 744 4284244079
-18.025688 1546.9248 744 4281215579
-16.899082 1546.9248 744 4278847031
-15.772477 1546.9248 744 4280877056
-14.645871 1546.9248 744 4281797642
-13.497248 1546.8679 743 4281405717
-12.372478 1546.8679 743 4281339668
-11.247706 1546.8679 743 4281405965
-10.106422 1546.811 742 4281340172
-8.9688072 1546.7542 741 4281340421
115.28807 1547.0386 746 4290835199
116.41835 1547.0386 746 4291229951
117.54862 1547.0386 746 4291294463
118.6789 1547.0386 746 4291294463
119.61468 1546.9817 745 4291098367
120.74312 1546.9817 745 4291098367
121.87156 1546.9817 745 4291097599
123 1546.9817 745 4291031807
124.12844 1546.9817 745 4291031551
125.46055 1547.0386 746 4291294463
126.59083 1547.0386 746 4290637567
127.7211 1547.0386 746 4290505983
129.26973 1547.1523 748 4290768639
130.40367 1547.1523 748 4290899967
131.75046 1547.2092 749 4290638335
-26.080734 1546.0183 748 4281478467
-24.866055 1545.9082 746 4278321187
-23.697248 1545.8533 745 4283254637
-22.53211 1545.7982 744 4286543199
-21.405504 1545.7982 744 4288253817
-20.278898 1545.7982 744 4287401920
-19.152294 1545.7982 744 4283323010
-18.025688 1545.7982 744 4279968095
-16.871559 1545.7432 743 4278586442
-15.746789 1545.7432 743 4281466880
-14.622019 1545.7432 743 4282124034
-13.497248 1545.7432 743 4281798424
-12.352294 1545.6881 742 4281798424
-11.229358 1545.6881 742 4281666838
-10.089909 1545.6331 741 4281600788
-8.9688072 1545.6331 741 4281601292
-7.8348622 1545.578 740 4281601292
-6.7155962 1545.578 740 4281666838
111.35229 1545.7432 743 4290835455
115.10091 1545.8533 745 4289850879
116.22935 1545.8533 745 4290311423
117.3578 1545.8533 745 4290769151
118.48624 1545.8533 745 4290900991
119.42018 1545.7982 744 4291097855
120.54679 1545.7982 744 4291032063
121.67339 1545.7982 744 4291031807
122.8 1545.7982 744 4291097599
123.92661 1545.7982 744 4290899967
125.25688 1545.8533 745 4290768639
126.38532 1545.8533 745 4290637567
127.7211 1545.9082 746 4290505983
129.26973 1546.0183 748 4290636799
130.40367 1546.0183 748 4290702591
131.53761 1546.0183 748 4290374655
-23.658716 1544.6715 744 4287400337
-22.53211 1544.6715 744 4287595401
-21.405504 1544.6715 744 4288055952
-20.278898 1544.6715 744 4287859643
-19.152294 1544.6715 744 4285096337
-17.99633 1544.6184 743 4282402447
-16.871559 1544.6184 743 4281810310
-15.746789 1544.6184 743 4280160259
-14.622019 1544.6184 743 4279897344
-13.475229 1544.5652 742 4281404961
-12.352294 1544.5652 742 4281536803
-11.211009 1544.512 741 4281666838
-10.089909 1544.512 741 4281666838
-8.9541283 1544.4587 740 4281601292
-7.8348622 1544.4587 740 4281667086
-6.7155962 1544.4587 740 4281798424
110.04771 1544.5652 742 4290966015
111.35229 1544.6184 743 4291426559
112.47707 1544.6184 743 4290835199
113.60184 1544.6184 743 4290769407
114.91376 1544.6715 744 4290966015
115.85138 1544.6184 743 4290966015
116.97615 1544.6184 743 4290768639
118.10091 1544.6184 743 4290966015
119.22569 1544.6184 743 4290966015
120.35046 1544.6184 743 4290966015
121.47523 1544.6184 743 4290966015
122.6 1544.6184 743 4290966015
123.72477 1544.6184 743 4290637055
124.84954 1544.6184 743 4290637055
126.17982 1544.6715 744 4290702847
127.30642 1544.6715 744 4291163391
128.85138 1544.778 746 4290966015
129.98166 1544.778 746 4291031807
-23.658716 1543.5449 744 4286475887
-22.53211 1543.5449 744 4285754755
-21.405504 1543.5449 744 4287531423
-20.278898 1543.5449 744 4288579494
-19.121101 1543.4935 743 4287197841
-17.99633 1543.4935 743 4286151565
-16.871559 1543.4935 743 4284769912
-15.746789 1543.4935 743 4279252567
-14.622019 1543.4935 743 4278199364
-13.475229 1543.4423 742 4280878355
-12.33211 1543.3909 741 4281338906
-11.211009 1543.3909 741 4281600538
-10.089909 1543.3909 741 4281732381
-8.9541283 1543.3395 740 4281994254
-7.8348622 1543.3395 740 4281862924
-6.7155962 1543.3395 740 4281798424
-5.5963302 1543.3395 740 4281864217
-4.4770641 1543.3395 740 4282191392
107.62569 1543.3909 741 4291360511
108.74679 1543.3909 741 4291162879
110.04771 1543.4423 742 4290638335
111.17064 1543.4423 742 4290901503
112.47707 1543.4935 743 4290835199
113.60184 1543.4935 743 4290835199
114.72661 1543.4935 743 4291032063
115.85138 1543.4935 743 4291032063
116.97615 1543.4935 743 4290900223
118.10091 1543.4935 743 4290966015
119.03119 1543.4423 742 4290966015
120.15413 1543.4423 742 4290966015
121.27706 1543.4423 742 4290900991
122.6 1543.4935 743 4290835199
123.72477 1543.4935 743 4290374655
124.84954 1543.4935 743 4290506495
125.97431 1543.4935 743 4290702847
127.30642 1543.5449 744 4290965759
128.6422 1543.5963 745 4290113535
-22.53211 1542.4183 744 4285885045
-21.405504 1542.4183 744 4287332491
-20.278898 1542.4183 744 4287134307
-19.121101 1542.3688 743 4285620812
-17.99633 1542.3688 743 4286282101
-16.871559 1542.3688 743 4287071874
-15.721101 1542.3192 742 4284640402
-14.598166 1542.3192 742 4280495443
-13.453211 1542.2698 741 4278190101
-12.33211 1542.2698 741 4279044387
-11.19266 1542.2202 740 4281468439
-10.073395 1542.2202 740 4281863197
-8.9541283 1542.2202 740 4281469963
-7.8348622 1542.2202 740 4281601292
-6.7155962 1542.2202 740 4281732879
-5.5963302 1542.2202 740 4281930514
-4.4770641 1542.2202 740 4281864730
105.55596 1542.3192 742 4292082431
106.50459 1542.2698 741 4291885055
107.62569 1542.2698 741 4291097855
108.74679 1542.2698 741 4290966015
109.86789 1542.2698 741 4290835199
111.17064 1542.3192 742 4290835199
112.29358 1542.3192 742 4290900991
113.41651 1542.3192 742 4291098367
114.53945 1542.3192 742 4291228671
115.66238 1542.3192 742 4291360255
116.78532 1542.3192 742 4290768895
117.90826 1542.3192 742 4290768895
119.03119 1542.3192 742 4290966015
120.15413 1542.3192 742 4291097599
121.27706 1542.3192 742 4290966783
122.4 1542.3192 742 4290900991
123.52293 1542.3192 742 4290506495
124.84954 1542.3688 743 4290572287
125.97431 1542.3688 743 4290703359
127.09908 1542.3688 743 4290834943
128.43303 1542.4183 744 4290244351
-22.53211 1541.2917 744 4284373098
-21.405504 1541.2917 744 4283978596
-20.278898 1541.2917 744 4282995281
-19.121101 1541.244 743 4284376934
-17.99633 1541.244 743 4285298804
-16.844036 1541.1963 742 4285956734
-15.721101 1541.1963 742 4286284431
-14.598166 1541.1963 742 4282007886
-13.453211 1541.1487 741 4279898175
-12.33211 1541.1487 741 4281411414
-11.19266 1541.101 740 4283181403
-10.073395 1541.101 740 4281339199
-8.9541283 1541.101 740 4281469441
-7.8220181 1541.0532 739 4281864199
-6.704587 1541.0532 739 4281472023
-5.5871558 1541.0532 739 4281603609
-4.4697247 1541.0532 739 4281864730
-3.3522935 1541.0532 739 4281798937
-2.2348623 1541.0532 739 4281798424
103.4789 1541.244 743 4290244351
104.43303 1541.1963 742 4290968319
105.38348 1541.1487 741 4290769663
106.50459 1541.1487 741 4290967295
107.62569 1541.1487 741 4290704895
108.56881 1541.101 740 4290704895
109.68807 1541.101 740 4290835711
110.98899 1541.1487 741 4290835711
112.11009 1541.1487 741 4290967039
113.04587 1541.101 740 4290967039
114.35229 1541.1487 741 4290507263
115.4734 1541.1487 741 4290836479
116.40367 1541.101 740 4290507263
117.7156 1541.1487 741 4290573055
118.8367 1541.1487 741 4291032063
119.9578 1541.1487 741 4291032063
121.0789 1541.1487 741 4290375679
122.4 1541.1963 742 4290507007
123.52293 1541.1963 742 4290244351
124.64587 1541.1963 742 4290376191
125.97431 1541.244 743 4290375679
127.09908 1541.244 743 4290572799
128.43303 1541.2917 744 4290047743
-23.620184 1540.1193 743 4281865512
-22.495413 1540.1193 743 4281147685
-21.370642 1540.1193 743 4281016099
-20.245872 1540.1193 743 4282334033
-19.121101 1540.1193 743 4285229181
-17.99633 1540.1193 743 4283059039
-16.844036 1540.0734 742 4280295733
-15.695413 1540.0275 741 4281878331
-14.574312 1540.0275 741 4284312672
-13.453211 1540.0275 741 4285691514
-12.311927 1539.9817 740 4286283650
-11.19266 1539.9817 740 4283058819
-10.073395 1539.9817 740 4278387516
-8.9394493 1539.9358 739 4278976512
-7.8220181 1539.9358 739 4280487175
-6.704587 1539.9358 739 4281471510
-5.5871558 1539.9358 739 4281668632
-4.4697247 1539.9358 739 4281732631
-3.3522935 1539.9358 739 4281798424
-2.2348623 1539.9358 739 4281537816
-1.1174312 1539.9358 739 4281406230
103.31009 1540.0734 742 4292476159
104.43303 1540.0734 742 4291818239
105.38348 1540.0275 741 4291229439
106.33028 1539.9817 740 4291492607
107.44954 1539.9817 740 4291098367
108.56881 1539.9817 740 4290900991
109.68807 1539.9817 740 4291032063
110.80734 1539.9817 740 4291097855
111.92661 1539.9817 740 4291228671
112.86055 1539.9358 739 4291162879
113.97798 1539.9358 739 4290900991
115.2844 1539.9817 740 4291427327
116.40367 1539.9817 740 4290966015
117.52293 1539.9817 740 4290900223
118.8367 1540.0275 741 4291031551
119.9578 1540.0275 741 4291162879
121.0789 1540.0275 741 4291032063
122.4 1540.0734 742 4291097855
123.52293 1540.0734 742 4290900991
124.64587 1540.0734 742 4290967039
125.76881 1540.0734 742 4290900991
127.09908 1540.1193 743 4290967039
128.22385 1540.1193 743 4290769663
-22.495413 1538.9945 743 4281800482
-21.370642 1538.9945 743 4281537566
-20.245872 1538.9945 743 4283380785
-19.121101 1538.9945 743 4283380785
-17.966972 1538.9504 742 4281806114
-16.816513 1538.9064 741 4281477150
-15.695413 1538.9064 741 4283057742
-14.574312 1538.9064 741 4286807943
-13.431192 1538.8624 740 4287337874
-12.311927 1538.8624 740 4286087807
-11.174312 1538.8184 739 4281750625
-10.056881 1538.8184 739 4278658353
-8.9394493 1538.8184 739 4281864006
-7.8220181 1538.8184 739 4281864006
-6.6935778 1538.7743 738 4280879107
-5.5779815 1538.7743 738 4281339658
-4.4623852 1538.7743 738 4281798424
-3.3467889 1538.7743 738 4281930010
-2.2348623 1538.8184 739 4281864730
-1.1174312 1538.8184 739 4281864730
0 1538.7743 738 4281471758
1.1155963 1538.7743 738 4281669136
2.2311926 1538.7743 738 4281930523
102.97248 1538.8624 740 4291294463
104.09174 1538.8624 740 4291228671
105.21101 1538.8624 740 4291098367
106.15596 1538.8184 739 4290967039
107.27339 1538.8184 739 4290901503
108.39082 1538.8184 739 4290901503
109.50826 1538.8184 739 4291293951
110.62569 1538.8184 739 4291359743
111.74312 1538.8184 739 4290637567
112.86055 1538.8184 739 4290769151
113.97798 1538.8184 739 4290769151
115.09541 1538.8184 739 4291098111
116.21284 1538.8184 739 4290901503
117.52293 1538.8624 740 4290769919
118.6422 1538.8624 740 4291031295
119.9578 1538.9064 741 4291162623
121.0789 1538.9064 741 4291228159
122.4 1538.9504 742 4291162367
123.52293 1538.9504 742 4290638335
124.64587 1538.9504 742 4290638335
125.76881 1538.9504 742 4290638335
127.09908 1538.9945 743 4290638335
-22.458715 1537.8275 742 4281603609
-21.335779 1537.8275 742 4281406230
-20.212845 1537.8275 742 4281865234
-19.089909 1537.8275 742 4281470476
-17.966972 1537.8275 742 4280686884
-16.816513 1537.7853 741 4284831843
-15.695413 1537.7853 741 4285029264
-14.574312 1537.7853 741 4287463604
-13.431192 1537.7432 740 4288188272
-12.311927 1537.7432 740 4287004254
-11.19266 1537.7432 740 4286481002
-10.056881 1537.7009 739 4287994241
-8.9394493 1537.7009 739 4288581499
-7.8091745 1537.6587 738 4282923301
-6.6935778 1537.6587 738 4281206528
-5.5688071 1537.6165 737 4281601283
-4.4623852 1537.6587 738 4282125336
-3.3412845 1537.6165 737 4282257178
-2.2311926 1537.6587 738 4281864730
-1.1155963 1537.6587 738 4281864730
0 1537.6165 737 4281798424
1.1155963 1537.6587 738 4281864217
2.2311926 1537.6587 738 4281666838
101.51926 1537.6587 738 4292146687
102.63486 1537.6587 738 4291490815
103.75046 1537.6587 738 4291425023
104.86606 1537.6587 738 4291032063
105.98165 1537.6587 738 4290966015
107.09724 1537.6587 738 4291032063
108.21284 1537.6587 738 4291032063
109.50826 1537.7009 739 4290966015
110.62569 1537.7009 739 4291097855
111.74312 1537.7009 739 4291032063
112.86055 1537.7009 739 4290966015
113.97798 1537.7009 739 4290638335
115.09541 1537.7009 739 4290835455
116.21284 1537.7009 739 4290835711
117.52293 1537.7432 740 4291033343
118.6422 1537.7432 740 4290966015
119.9578 1537.7853 741 4290900223
121.0789 1537.7853 741 4291031295
122.4 1537.8275 742 4290899711
123.52293 1537.8275 742 4290637567
124.64587 1537.8275 742 4290637567
125.76881 1537.8275 742 4290637567
126.89175 1537.8275 742 4290703359
-20.179817 1536.6642 741 4282192146
-19.058716 1536.6642 741 4281995024
-17.937614 1536.6642 741 4281015056
-16.816513 1536.6642 741 4283646520
-15.695413 1536.6642 741 4284305256
-14.574312 1536.6642 741 4287594906
-13.453211 1536.6642 741 4289110435
-12.311927 1536.6239 740 4286807680
-11.174312 1536.5835 739 4286416240
-10.056881 1536.5835 739 4287995272
-8.9247704 1536.5431 738 4288583602
-7.8091745 1536.5431 738 4281806924
-6.6935778 1536.5431 738 4281010437
-5.5688071 1536.5028 737 4281602574
-4.4550457 1536.5028 737 4282060313
-3.3412845 1536.5028 737 4282191898
-2.2275229 1536.5028 737 4281864730
-1.1155963 1536.5431 738 4281798937
0 1536.5028 737 4281732879
1.1137614 1536.5028 737 4281732879
2.2275229 1536.5028 737 4281994254
3.3467889 1536.5431 738 4282125840
4.4623852 1536.5431 738 4281798424
101.35229 1536.5028 737 4291425023
102.46606 1536.5028 737 4291096319
103.57982 1536.5028 737 4291162111
104.86606 1536.5431 738 4290637567
105.98165 1536.5431 738 4290900735
107.09724 1536.5431 738 4291097855
108.21284 1536.5431 738 4290966015
109.32844 1536.5431 738 4290966015
110.62569 1536.5835 739 4291031807
111.74312 1536.5835 739 4290967039
112.86055 1536.5835 739 4290900991
113.97798 1536.5835 739 4290638335
115.09541 1536.5835 739 4290638335
116.21284 1536.5835 739 4290506751
117.33028 1536.5835 739 4290835455
118.6422 1536.6239 740 4290835199
119.76147 1536.6239 740 4290835199
121.0789 1536.6642 741 4290966015
122.2 1536.6642 741 4290900223
123.52293 1536.7046 742 4290505983
124.64587 1536.7046 742 4290637567
125.76881 1536.7046 742 4290702847
126.89175 1536.7046 742 4290637055
-19.058716 1535.5431 741 4282257691
-17.937614 1535.5431 741 4281537566
-16.816513 1535.5431 741 4280879380
-15.695413 1535.5431 741 4281078016
-14.574312 1535.5431 741 4283249172
-13.453211 1535.5431 741 4283319385
-12.311927 1535.5046 740 4283187543
-11.174312 1535.4661 739 4284309331
-10.056881 1535.4661 739 4286743672
-8.9247704 1535.4275 738 4287331931
-7.8091745 1535.4275 738 4281147648
-6.682569 1535.389 737 4280680709
-5.5688071 1535.389 737 4281864982
-4.4550457 1535.389 737 4282125336
-3.3357799 1535.3505 736 4282257178
-2.2275229 1535.389 737 4281929760
