# .PCD v0.7 - Point Cloud Data file format
VERSION 0.7
FIELDS x y z rgb
SIZE 4 4 4 4
TYPE F F F U
COUNT 1 1 1 1
WIDTH 1363
HEIGHT 1
VIEWPOINT 0 0 0 1 0 0 0
POINTS 1363
DATA ascii
113.37431 1642.8165 809 4286483398
114.45138 1642.6239 808 4290958049
115.35413 1642.2385 806 4292536825
116.5945 1642.2385 806 4292671487
117.83486 1642.2385 806 4292868863
118.89909 1642.0459 805 4292670975
120.3156 1642.2385 806 4289249759
121.55596 1642.2385 806 4283074791
122.79633 1642.2385 806 4283337964
124.0367 1642.2385 806 4284587519
-32.344955 1641.3799 808 4280486923
-31.100918 1641.3799 808 4280684558
-29.85688 1641.3799 808 4280554533
-28.612844 1641.3799 808 4279962396
-27.409174 1641.5707 809 4279701023
-26.163303 1641.5707 809 4284174690
-24.917431 1641.5707 809 4285032861
-23.67156 1641.5707 809 4288190925
-22.425688 1641.5707 809 4287868076
-21.179817 1641.5707 809 4283920497
-19.963303 1641.7615 810 4278201946
-18.715597 1641.7615 810 4278192951
-17.46789 1641.7615 810 4279042048
-16.267889 1642.1431 812 4279762944
-15.016514 1642.1431 812 4280025610
-13.785321 1642.334 813 4279631877
-12.550459 1642.5248 814 4279369749
-11.295413 1642.5248 814 4279632409
-10.040367 1642.5248 814 4280091404
-8.8238535 1643.0973 817 4280025610
-7.5633025 1643.0973 817 4280025610
-6.3119268 1643.2881 818 4279959561
-5.0715594 1643.8606 821 4279959567
-3.8036697 1643.8606 821 4279959567
-2.5431192 1644.2422 823 4279632399
-1.2733945 1644.433 824 4279632399
0 1644.2422 823 4279369991
1.2715596 1644.2422 823 4279501833
2.5467889 1644.433 824 4279435278
3.8311927 1644.8147 826 4279435278
5.1155963 1645.0055 827 4279238675
6.4036698 1645.1963 828 4279238675
7.7064219 1645.578 830 4279107592
8.9908257 1645.578 830 4279173130
10.275229 1645.578 830 4279173123
11.609175 1646.1504 833 4279173123
12.899082 1646.1504 833 4278910982
14.188991 1646.1504 833 4278910982
15.500917 1646.3413 834 4279107592
16.79266 1646.3413 834 4279173130
18.084404 1646.3413 834 4278714386
19.376146 1646.3413 834 4278648848
20.667891 1646.3413 834 4279107592
22.022018 1646.7229 836 4279107592
23.31743 1646.7229 836 4278714386
24.647707 1646.9138 837 4278517774
25.944954 1646.9138 837 4278779904
27.280733 1647.1046 838 4278910976
28.579817 1647.1046 838 4278452229
29.878899 1647.1046 838 4278321156
31.266054 1647.4862 840 4278321156
32.568806 1647.4862 840 4278321156
33.871559 1647.4862 840 4278321156
35.174313 1647.4862 840 4278255619
36.477066 1647.4862 840 4278321156
37.779816 1647.4862 840 4278452229
39.137615 1647.677 841 4278714368
40.442204 1647.677 841 4278714368
41.746788 1647.677 841 4278190080
42.990826 1647.4862 840 4278255616
44.293579 1647.4862 840 4278648833
45.596329 1647.4862 840 4278648833
46.899082 1647.4862 840 4278190081
48.201836 1647.4862 840 4278321156
49.504585 1647.4862 840 4278255627
50.807339 1647.4862 840 4278190089
52.110092 1647.4862 840 4278190087
53.412846 1647.4862 840 4278190085
54.715595 1647.4862 840 4278190080
56.018349 1647.4862 840 4278190080
57.321102 1647.4862 840 4278190080
58.623852 1647.4862 840 4278190080
59.926605 1647.4862 840 4278190080
61.229359 1647.4862 840 4278190080
62.532108 1647.4862 840 4278190080
63.655045 1647.1046 838 4278190080
64.954132 1647.1046 838 4278190080
66.253212 1647.1046 838 4278190080
67.552292 1647.1046 838 4278190086
68.851379 1647.1046 838 4278190087
70.150459 1647.1046 838 4278321164
71.348625 1646.9138 837 4278648848
72.645874 1646.9138 837 4278386962
73.838531 1646.7229 836 4278715670
74.921104 1646.3413 834 4278911500
76.212845 1646.3413 834 4278977293
77.504585 1646.3413 834 4279174929
78.796333 1646.3413 834 4279372051
79.746788 1645.7688 831 4279764749
81.033028 1645.7688 831 4279896335
82.201836 1645.578 830 4280093210
83.486237 1645.578 830 4280225052
84.528442 1645.1963 828 4280290593
85.809174 1645.1963 828 4279830042
86.965141 1645.0055 827 4279369728
88.244034 1645.0055 827 4278452224
89.522934 1645.0055 827 4278190080
90.801834 1645.0055 827 4280428323
91.684402 1644.433 824 4284378513
92.823853 1644.2422 823 4289444317
94.095413 1644.2422 823 4292076287
95.091743 1643.8606 821 4290168310
96.359634 1643.8606 821 4288922111
97.486237 1643.6697 820 4283987657
98.466057 1643.2881 818 4278196658
99.728439 1643.2881 818 4278190226
100.84404 1643.0973 817 4278190138
101.95596 1642.9064 816 4278190146
103.21468 1642.9064 816 4278190134
104.01651 1642.334 813 4278190394
105.26972 1642.334 813 4278190141
106.36697 1642.1431 812 4278190142
107.61835 1642.1431 812 4278190134
108.86973 1642.1431 812 4278190651
109.79816 1641.7615 810 4278191171
111.04587 1641.7615 810 4278190138
112.29358 1641.7615 810 4278190142
113.37431 1641.5707 809 4282665621
114.45138 1641.3799 808 4281890978
115.35413 1640.9982 806 4287878141
116.5945 1640.9982 806 4290897919
117.83486 1640.9982 806 4290635007
118.89909 1640.8074 805 4290567423
120.13761 1640.8074 805 4285698762
121.37614 1640.8074 805 4278214059
122.79633 1640.9982 806 4278218428
123.85321 1640.8074 805 4281365959
125.09174 1640.8074 805 4287353087
-33.48991 1639.7578 806 4280422179
-32.249542 1639.7578 806 4280879107
-31.009174 1639.7578 806 4281339658
-29.768806 1639.7578 806 4280815654
-28.52844 1639.7578 806 4280749861
-27.368807 1640.1357 808 4280752426
-26.124771 1640.1357 808 4285423729
-24.880733 1640.1357 808 4282070947
-23.67156 1640.3247 809 4279241848
-22.425688 1640.3247 809 4278193935
-21.179817 1640.3247 809 4278190851
-19.933945 1640.3247 809 4278190080
-18.715597 1640.5138 810 4278191624
-17.46789 1640.5138 810 4279959561
-16.220184 1640.5138 810 4280091404
-15.016514 1640.8917 812 4280026372
-13.785321 1641.0807 813 4279829249
-12.550459 1641.2698 814 4279959561
-11.328441 1641.6477 816 4279959561
-10.069725 1641.6477 816 4279959561
-8.8366976 1642.0256 818 4279828487
-7.5743117 1642.0256 818 4279828487
-6.3302751 1642.4037 820 4279828487
-5.0715594 1642.5927 821 4279828487
-3.8146789 1642.9707 823 4279959561
-2.5467889 1643.1597 824 4279501833
-1.2733945 1643.1597 824 4279304198
0 1642.9707 823 4279304704
1.2733945 1643.1597 824 4279304704
2.5541284 1643.5376 826 4279697420
3.8366973 1643.7266 827 4279697420
5.1229358 1643.9156 828 4279369755
6.4036698 1643.9156 828 4279238681
7.7174311 1644.4825 831 4278910982
9.0036697 1644.4825 831 4278910982
10.289908 1644.4825 831 4279173123
11.609175 1644.8606 833 4279173123
12.917431 1645.0496 834 4279107592
14.209174 1645.0496 834 4279107592
15.500917 1645.0496 834 4278910982
16.79266 1645.0496 834 4279107592
18.13578 1645.4275 836 4278648840
19.431192 1645.4275 836 4278517766
20.726606 1645.4275 836 4278255619
22.022018 1645.4275 836 4278583303
23.350458 1645.6165 837 4279238675
24.68257 1645.8055 838 4278910990
25.981651 1645.8055 838 4278714368
27.357798 1646.1835 840 4278845440
28.660551 1646.1835 840 4278845445
29.963303 1646.1835 840 4278714371
31.266054 1646.1835 840 4278714368
32.614677 1646.3724 841 4278648832
33.919266 1646.3724 841 4278321156
35.223854 1646.3724 841 4278321156
36.528439 1646.3724 841 4278321156
37.939449 1646.7505 843 4278255619
39.247707 1646.7505 843 4278648832
40.555962 1646.7505 843 4278648832
41.86422 1646.7505 843 4278190080
43.051376 1646.3724 841 4278190080
44.355965 1646.3724 841 4278190080
45.660549 1646.3724 841 4278190080
46.965137 1646.3724 841 4278190080
48.269726 1646.3724 841 4278190080
49.504585 1646.1835 840 4278190081
50.807339 1646.1835 840 4278190081
52.110092 1646.1835 840 4278190080
53.488075 1646.3724 841 4278190080
54.79266 1646.3724 841 4278190080
56.097248 1646.3724 841 4278190080
57.321102 1646.1835 840 4278190080
58.623852 1646.1835 840 4278190080
59.926605 1646.1835 840 4278190080
61.229359 1646.1835 840 4278190080
62.532108 1646.1835 840 4278190080
63.834862 1646.1835 840 4278190080
65.137611 1646.1835 840 4278190080
66.253212 1645.8055 838 4278190080
67.552292 1645.8055 838 4278190085
68.851379 1645.8055 838 4278190085
70.150459 1645.8055 838 4278255627
71.449539 1645.8055 838 4278321164
72.748627 1645.8055 838 4278648842
73.943123 1645.6165 837 4279043088
75.240364 1645.6165 837 4278780712
76.429359 1645.4275 836 4278583332
77.504585 1645.0496 834 4278977293
78.796333 1645.0496 834 4278977293
79.974312 1644.8606 833 4279500815
81.264221 1644.8606 833 4279697939
82.319267 1644.4825 831 4279763988
83.605507 1644.4825 831 4280026903
84.770645 1644.2936 830 4280354842
85.809174 1643.9156 828 4280354842
87.089905 1643.9156 828 4280354842
88.244034 1643.7266 827 4280091413
89.522934 1643.7266 827 4278714386
90.801834 1643.7266 827 4278190082
91.684402 1643.1597 824 4278190080
92.957802 1643.1597 824 4280166686
94.095413 1642.9707 823 4284842896
95.366974 1642.9707 823 4290435301
96.359634 1642.5927 821 4291616767
97.627525 1642.5927 821 4291616767
98.752296 1642.4037 820 4289183231
100.01835 1642.4037 820 4280827540
100.99083 1642.0256 818 4278190174
102.10458 1641.8367 817 4278190171
103.21468 1641.6477 816 4278190118
104.16881 1641.2698 814 4278190126
105.26972 1641.0807 813 4278190141
106.52293 1641.0807 813 4278190142
107.61835 1640.8917 812 4278191166
108.55046 1640.5138 810 4278191423
109.79816 1640.5138 810 4278190910
110.88257 1640.3247 809 4278190140
112.12844 1640.3247 809 4278190153
113.37431 1640.3247 809 4278190147
114.45138 1640.1357 808 4278190136
115.35413 1639.7578 806 4280428911
116.5945 1639.7578 806 4282812387
117.66055 1639.5688 805 4282549215
118.89909 1639.5688 805 4278207920
120.13761 1639.5688 805 4278192243
121.37614 1639.5688 805 4278190127
122.61468 1639.5688 805 4278190124
123.85321 1639.5688 805 4278190136
125.09174 1639.5688 805 4278190409
126.33028 1639.5688 805 4278213584
-34.730274 1638.5175 806 4280749861
-33.48991 1638.5175 806 4280749861
-32.249542 1638.5175 806 4281076752
-31.009174 1638.5175 806 4281273874
-29.768806 1638.5175 806 4281339170
-28.52844 1638.5175 806 4281404963
-27.368807 1638.8917 808 4281277992
-26.124771 1638.8917 808 4282001459
-24.880733 1638.8917 808 4281541719
-23.636698 1638.8917 808 4278190114
-22.39266 1638.8917 808 4278452224
-21.148624 1638.8917 808 4279304192
-19.933945 1639.0789 809 4280483849
-18.715597 1639.2661 810 4280418312
-17.46789 1639.2661 810 4280025610
-16.267889 1639.6404 812 4280025610
-15.038532 1639.8275 813 4279828487
-13.805505 1640.0146 814 4279828487
-12.587156 1640.389 816 4279828487
-11.328441 1640.389 816 4279894024
-10.084404 1640.5762 817 4279894272
-8.8366976 1640.7633 818 4279828480
-7.5963302 1641.1376 820 4279828487
-6.3302751 1641.1376 820 4279894024
-5.0862384 1641.6991 823 4279828487
-3.8201835 1641.8862 824 4279828487
-2.5467889 1641.8862 824 4279108631
-1.2733945 1641.8862 824 4278911252
0 1641.8862 824 4279697414
1.2770642 1642.2605 826 4279828487
2.5577981 1642.4478 827 4279631883
3.8422019 1642.6349 828 4279697420
5.1229358 1642.6349 828 4279238675
6.4220185 1643.0092 830 4279107600
7.7394495 1643.5707 833 4278910976
9.0293579 1643.5707 833 4278910976
10.319266 1643.5707 833 4278910982
11.625688 1643.7578 834 4279238667
12.954128 1644.1321 836 4279173130
14.209174 1643.7578 834 4279173130
15.544954 1644.1321 836 4279173130
16.79266 1643.7578 834 4279107592
18.13578 1644.1321 836 4278714386
19.458715 1644.3192 837 4278517774
20.755962 1644.3192 837 4278452224
22.053211 1644.3192 837 4278517760
23.383486 1644.5065 838 4279107600
24.752293 1644.8807 840 4279107600
26.055046 1644.8807 840 4278779908
27.357798 1644.8807 840 4278845445
28.660551 1644.8807 840 4278845445
30.005505 1645.0679 841 4278845445
31.310091 1645.0679 841 4278779904
32.706421 1645.4421 843 4278714368
34.014679 1645.4421 843 4278714371
35.322937 1645.4421 843 4278714371
36.631191 1645.4421 843 4278648833
37.939449 1645.4421 843 4278452224
41.86422 1645.4421 843 4278190080
43.172478 1645.4421 843 4278190080
44.480736 1645.4421 843 4278190080
45.660549 1645.0679 841 4278190080
46.965137 1645.0679 841 4278190080
48.269726 1645.0679 841 4278190080
49.57431 1645.0679 841 4278190081
50.878899 1645.0679 841 4278255619
52.183487 1645.0679 841 4278190087
53.488075 1645.0679 841 4278190087
54.79266 1645.0679 841 4278255616
56.097248 1645.0679 841 4278255616
57.401836 1645.0679 841 4278190080
58.706421 1645.0679 841 4278190080
60.011009 1645.0679 841 4278190080
61.315598 1645.0679 841 4278190080
62.532108 1644.8807 840 4278190080
63.834862 1644.8807 840 4278190080
65.137611 1644.8807 840 4278190080
66.440369 1644.8807 840 4278190080
67.743118 1644.8807 840 4278190080
69.045868 1644.8807 840 4278190080
70.150459 1644.5065 838 4278190086
71.449539 1644.5065 838 4278190089
72.748627 1644.5065 838 4278255627
74.047707 1644.5065 838 4278452237
75.240364 1644.3192 837 4278517780
76.429359 1644.1321 836 4278452243
77.72477 1644.1321 836 4278845445
78.796333 1643.7578 834 4278910982
80.088074 1643.7578 834 4279173130
81.264221 1643.5707 833 4279501327
82.554131 1643.5707 833 4279697939
83.605507 1643.1963 831 4279961110
84.770645 1643.0092 830 4279961110
86.055046 1643.0092 830 4279961110
87.089905 1642.6349 828 4280157206
88.370644 1642.6349 828 4280157206
89.522934 1642.4478 827 4280157710
90.671562 1642.2605 826 4279894538
91.948624 1642.2605 826 4278190080
92.957802 1641.8862 824 4278190080
94.231194 1641.8862 824 4278200588
95.366974 1641.6991 823 4285701505
96.638535 1641.6991 823 4290103039
97.627525 1641.3247 821 4291287551
98.895416 1641.3247 821 4290963199
100.01835 1641.1376 820 4287541983
101.2844 1641.1376 820 4278216447
102.10458 1640.5762 817 4278197688
103.36514 1640.5762 817 4278190154
104.16881 1640.0146 814 4278190154
105.26972 1639.8275 813 4278190135
106.52293 1639.8275 813 4278190142
107.61835 1639.6404 812 4278191941
108.55046 1639.2661 810 4278191941
109.79816 1639.2661 810 4278191680
111.04587 1639.2661 810 4278190138
112.12844 1639.0789 809 4278190130
113.37431 1639.0789 809 4278190127
114.45138 1638.8917 808 4278190117
115.35413 1638.5175 806 4281876594
116.5945 1638.5175 806 4284908799
117.66055 1638.3303 805 4284645374
118.89909 1638.3303 805 4278209233
120.13761 1638.3303 805 4278192785
121.19633 1638.1431 804 4278190141
122.61468 1638.3303 805 4278190135
123.66972 1638.1431 804 4278190080
124.90643 1638.1431 804 4278589701
126.14312 1638.1431 804 4278211746
127.37981 1638.1431 804 4286704127
-35.970642 1637.2771 806 4280355089
-34.678898 1637.0918 805 4280552482
-33.440369 1637.0918 805 4280815654
-32.201836 1637.0918 805 4281471510
-30.963303 1637.0918 805 4281537303
-29.724771 1637.0918 805 4281537053
-28.52844 1637.2771 806 4281405211
-27.288073 1637.2771 806 4280354842
-26.124771 1637.6477 808 4279107590
-24.880733 1637.6477 808 4278779904
-23.636698 1637.6477 808 4279238659
-22.39266 1637.6477 808 4279959561
-21.148624 1637.6477 808 4280091404
-19.933945 1637.833 809 4280091917
-18.715597 1638.0183 810 4279894538
-17.46789 1638.0183 810 4280025610
-16.291742 1638.5743 813 4279828487
-15.060551 1638.7596 814 4279697420
-13.805505 1638.7596 814 4279697420
-12.587156 1639.1302 816 4279631877
-11.344954 1639.3156 817 4279894024
-10.099083 1639.501 818 4279894272
-8.8623857 1639.8716 820 4279828480
-7.6073394 1640.0569 821 4279828493
-6.3394494 1640.0569 821 4279828493
-5.0862384 1640.4275 823 4279697414
-3.8201835 1640.6128 824 4279959561
-2.5541284 1640.9835 826 4279763995
-1.2770642 1640.9835 826 4279304212
0 1640.9835 826 4279173130
1.2770642 1640.9835 826 4279238667
2.5577981 1641.1688 827 4279631883
3.8422019 1641.3541 828 4279631883
5.1376147 1641.7247 830 4279173130
6.4495411 1642.2808 833 4278910982
7.7504587 1642.4661 834 4278779904
9.042202 1642.4661 834 4278910976
10.333945 1642.4661 834 4278910982
11.675229 1643.022 837 4279107592
12.972477 1643.022 837 4279107592
14.269725 1643.022 837 4279107592
15.566973 1643.022 837 4279107592
16.86422 1643.022 837 4279173130
18.187157 1643.2073 838 4278714386
19.486238 1643.2073 838 4278714386
20.78532 1643.2073 838 4279107592
22.084404 1643.2073 838 4278910982
23.449541 1643.578 840 4278910982
24.752293 1643.578 840 4278976519
26.091743 1643.7633 841 4278910990
27.39633 1643.7633 841 4278845453
28.700918 1643.7633 841 4278910982
49.57431 1643.7633 841 4278190080
50.878899 1643.7633 841 4278190081
52.183487 1643.7633 841 4278255633
60.011009 1643.7633 841 4278190080
61.315598 1643.7633 841 4278190080
62.620182 1643.7633 841 4278190080
63.92477 1643.7633 841 4278190080
65.229355 1643.7633 841 4278190080
66.440369 1643.578 840 4278190080
67.743118 1643.578 840 4278190080
69.045868 1643.578 840 4278190080
70.348625 1643.578 840 4278190084
71.651375 1643.578 840 4278190083
72.748627 1643.2073 838 4278190080
74.047707 1643.2073 838 4278190080
75.240364 1643.022 837 4278190085
76.537613 1643.022 837 4278190085
77.834862 1643.022 837 4278190080
79.02018 1642.8367 836 4278190080
80.088074 1642.4661 834 4278779904
81.379814 1642.4661 834 4279107584
82.554131 1642.2808 833 4279173130
83.84404 1642.2808 833 4279304204
84.891747 1641.9102 831 4279369749
86.177979 1641.9102 831 4279632409
87.339447 1641.7247 830 4279698202
88.370644 1641.3541 828 4279763995
89.651375 1641.3541 828 4280156956
90.801834 1641.1688 827 4280551714
91.948624 1640.9835 826 4279634980
93.225685 1640.9835 826 4278648852
94.231194 1640.6128 824 4278190086
95.504585 1640.6128 824 4278190087
96.777985 1640.6128 824 4280176458
97.910095 1640.4275 823 4287018930
98.895416 1640.0569 821 4290170367
100.1633 1640.0569 821 4292275455
101.43119 1640.0569 821 4291813631
102.25321 1639.501 818 4286747590
103.36514 1639.3156 817 4278209436
104.4734 1639.1302 816 4278193245
105.42385 1638.7596 814 4278190137
106.52293 1638.5743 813 4278190140
107.61835 1638.389 812 4278191173
108.55046 1638.0183 810 4278190916
109.79816 1638.0183 810 4278190910
110.88257 1637.833 809 4278190135
112.12844 1637.833 809 4278190136
113.37431 1637.833 809 4283258008
114.45138 1637.6477 808 4287342250
115.35413 1637.2771 806 4291487209
116.5945 1637.2771 806 4292340991
117.66055 1637.0918 805 4292274943
118.72294 1636.9064 804 4290631167
119.95963 1636.9064 804 4284972989
121.19633 1636.9064 804 4278197410
122.43303 1636.9064 804 4278190211
123.66972 1636.9064 804 4278190212
124.90643 1636.9064 804 4287204607
125.76881 1636.5358 802 4286235903
127.00183 1636.5358 802 4289328127
-37.21101 1636.0367 806 4280684567
-35.917431 1635.8533 805 4280684567
-34.678898 1635.8533 805 4280750110
-33.390827 1635.6697 804 4280815904
-32.154129 1635.6697 804 4280815904
-30.917431 1635.6697 804 4281144868
-29.680735 1635.6697 804 4281014302
-28.486238 1635.8533 805 4280553751
-27.247707 1635.8533 805 4280157710
-26.047707 1636.0367 806 4279828745
-24.807339 1636.0367 806 4280483841
-23.636698 1636.4037 808 4280614916
-22.39266 1636.4037 808 4280157206
-21.148624 1636.4037 808 4280157206
-19.933945 1636.5872 809 4280157710
-18.715597 1636.7706 810 4280026124
-17.519266 1637.1376 812 4279633162
-16.291742 1637.321 813 4279501833
-15.060551 1637.5046 814 4279828487
-13.845872 1637.8716 816 4279828487
-12.605505 1638.0551 817 4280352768
-11.361468 1638.2385 818 4280549377
-10.099083 1638.2385 818 4279894272
-8.8752289 1638.7889 821 4279960065
-7.6073394 1638.7889 821 4279959561
-6.3577981 1639.156 823 4279828487
-5.0935779 1639.3395 824 4279631872
-3.8311927 1639.7064 826 4279828480
-2.5541284 1639.7064 826 4279959567
-1.2788991 1639.8899 827 4279631883
0 1639.7064 826 4279631872
1.2788991 1639.8899 827 4279631872
2.5614679 1640.0734 828 4279631883
3.8532109 1640.4404 830 4279697420
5.1449542 1640.6239 831 4279238675
6.4587154 1641.1743 834 4279173138
7.7504587 1641.1743 834 4279173123
9.0678902 1641.5413 836 4279107586
10.377981 1641.7247 837 4279173130
11.691743 1641.9082 838 4279173130
12.990826 1641.9082 838 4279173130
14.289908 1641.9082 838 4278910982
15.588991 1641.9082 838 4279107592
16.888073 1641.9082 838 4279173130
18.187157 1641.9082 838 4279173123
19.486238 1641.9082 838 4279107586
20.844036 1642.2753 840 4279107592
22.084404 1641.9082 838 4279107592
23.449541 1642.2753 840 4279107586
24.787155 1642.4587 841 4279107586
26.091743 1642.4587 841 4278648840
63.92477 1642.4587 841 4278190080
65.229355 1642.4587 841 4278190080
66.533943 1642.4587 841 4278190080
67.838531 1642.4587 841 4278190080
69.045868 1642.2753 840 4278190080
70.348625 1642.2753 840 4278190080
71.651375 1642.2753 840 4278190080
72.954132 1642.2753 840 4278190084
74.256882 1642.2753 840 4278190083
75.346786 1641.9082 838 4278190080
76.645874 1641.9082 838 4278190080
77.834862 1641.7247 837 4278190080
79.132111 1641.7247 837 4278190080
80.315598 1641.5413 836 4278190080
81.379814 1641.1743 834 4278321156
82.671562 1641.1743 834 4278452229
83.963303 1641.1743 834 4278517766
85.133942 1640.9908 833 4279173130
86.423851 1640.9908 833 4279501327
87.71376 1640.9908 833 4279501833
88.750458 1640.6239 831 4279698956
89.908257 1640.4404 830 4280157206
90.932114 1640.0734 828 4280551964
92.080734 1639.8899 827 4280551964
93.225685 1639.7064 826 4280551964
94.502754 1639.7064 826 4278912004
95.779816 1639.7064 826 4278190080
96.777985 1639.3395 824 4278190080
98.051376 1639.3395 824 4283719509
99.181648 1639.156 823 4287471561
100.1633 1638.7889 821 4290892797
101.43119 1638.7889 821 4292801791
102.55046 1638.6055 820 4290433263
103.51559 1638.2385 818 4282557951
104.62569 1638.0551 817 4278209976
105.73211 1637.8716 816 4278190203
106.6789 1637.5046 814 4278190198
107.61835 1637.1376 812 4278190112
108.86973 1637.1376 812 4278190122
109.79816 1636.7706 810 4278191416
111.04587 1636.7706 810 4278190125
112.12844 1636.5872 809 4278190123
113.37431 1636.5872 809 4284902052
114.45138 1636.4037 808 4287674367
115.35413 1636.0367 806 4290766847
116.42202 1635.8533 805 4292476671
117.66055 1635.8533 805 4292016127
118.72294 1635.6697 804 4291293951
119.95963 1635.6697 804 4288925423
121.19633 1635.6697 804 4280194552
122.43303 1635.6697 804 4278213309
123.30275 1635.3027 802 4278214584
124.53578 1635.3027 802 4286377471
125.76881 1635.3027 802 4288803071
126.81284 1635.1193 801 4289395199
128.04404 1635.1193 801 4290179839
-37.155964 1634.6146 805 4280684063
-35.86422 1634.433 804 4280750113
-34.627522 1634.433 804 4280815904
-33.390827 1634.433 804 4280815904
-32.154129 1634.433 804 4280684063
-30.917431 1634.433 804 4280684063
-29.680735 1634.433 804 4280486675
-28.486238 1634.6146 805 4280289296
-27.247707 1634.6146 805 4280224007
-26.047707 1634.7964 806 4280026372
-24.807339 1634.7964 806 4280026372
-23.566973 1634.7964 806 4280157958
-22.39266 1635.1597 808 4280355089
-21.148624 1635.1597 808 4280355089
-19.933945 1635.3413 809 4280354842
-18.715597 1635.5229 810 4280157206
-17.519266 1635.8862 812 4279895315
-16.315596 1636.2495 814 4279698193
-15.104588 1636.6128 816 4279895042
-13.866055 1636.7944 817 4279566336
-12.605505 1636.7944 817 4279631872
-11.361468 1636.9762 818 4279697408
-10.12844 1637.3395 820 4279631872
-8.8752289 1637.5211 821 4279697408
-7.6293578 1637.8844 823 4279828480
-6.3669724 1638.066 824 4279697408
-5.1082568 1638.4293 826 4279304192
-3.8311927 1638.4293 826 4279369728
-2.5577981 1638.611 827 4279631877
-1.2788991 1638.611 827 4279631877
0 1638.611 827 4279304192
1.2807339 1638.7927 828 4279566336
2.5614679 1638.7927 828 4279631883
3.8587155 1639.3376 831 4279631883
5.1596332 1639.7009 833 4279238681
6.4587154 1639.8826 834 4279238681
7.7724771 1640.2458 836 4279173130
9.0935783 1640.6091 838 4279173130
10.39266 1640.6091 838 4279173138
11.724771 1640.9724 840 4279173138
13.027523 1640.9724 840 4279173130
14.330276 1640.9724 840 4279173130
15.633027 1640.9724 840 4279173123
16.93578 1640.9724 840 4279107586
18.238533 1640.9724 840 4278845440
19.541285 1640.9724 840 4279107584
20.844036 1640.9724 840 4278910982
22.14679 1640.9724 840 4279107592
72.954132 1640.9724 840 4278190080
74.256882 1640.9724 840 4278190080
75.559631 1640.9724 840 4278190080
76.645874 1640.6091 838 4278190080
77.944954 1640.6091 838 4278190080
79.244034 1640.6091 838 4278190080
80.429359 1640.4275 837 4278190082
81.726608 1640.4275 837 4278190084
82.906425 1640.2458 836 4278190085
84.201836 1640.2458 836 4278190089
85.255043 1639.8826 834 4278845445
86.792664 1640.2458 836 4279107592
87.838531 1639.8826 834 4279173123
89.00367 1639.7009 833 4279369991
90.293579 1639.7009 833 4280092165
91.192657 1639.156 830 4280157958
92.212845 1638.7927 828 4280354842
93.493576 1638.7927 828 4280551964
94.638535 1638.611 827 4280092708
95.917435 1638.611 827 4279697950
97.196327 1638.611 827 4278190361
98.333946 1638.4293 826 4278190089
99.324768 1638.066 824 4278202880
100.45321 1637.8844 823 4284324179
101.72477 1637.8844 823 4289381627
102.69908 1637.5211 821 4292539391
103.81651 1637.3395 820 4292604415
104.77798 1636.9762 818 4289709543
105.88624 1636.7944 817 4283206640
106.99083 1636.6128 816 4278197635
107.77615 1636.0679 813 4278190126
108.86973 1635.8862 812 4278190123
110.1211 1635.8862 812 4278190121
111.37247 1635.8862 812 4278190118
112.29358 1635.5229 810 4278190118
113.37431 1635.3413 809 4284770718
114.45138 1635.1597 808 4287999470
115.35413 1634.7964 806 4292144383
116.42202 1634.6146 805 4293394431
117.66055 1634.6146 805 4293328639
118.72294 1634.433 804 4292935679
119.95963 1634.433 804 4291488254
121.19633 1634.433 804 4285377023
122.06973 1634.0697 802 4282877165
123.30275 1634.0697 802 4280975103
124.35046 1633.8881 801 4288804351
125.58165 1633.8881 801 4291884031
126.81284 1633.8881 801 4292081663
128.04404 1633.8881 801 4291624447
129.27522 1633.8881 801 4291361023
130.50642 1633.8881 801 4291358719
-38.223854 1632.8367 802 4281207833
-36.990826 1632.8367 802 4281206312
-35.757797 1632.8367 802 4281272361
-34.524769 1632.8367 802 4281207833
-33.390827 1633.1963 804 4281010455
-32.154129 1633.1963 804 4280487445
-30.917431 1633.1963 804 4280289809
-29.680735 1633.1963 804 4280157710
-28.486238 1633.3761 805 4280157710
-27.247707 1633.3761 805 4280026372
-26.047707 1633.5559 806 4280092165
-24.807339 1633.5559 806 4280026124
-23.566973 1633.5559 806 4280289296
-22.39266 1633.9156 808 4280354592
-21.148624 1633.9156 808 4280485921
-19.933945 1634.0955 809 4280354842
-18.770641 1634.6349 812 4280486171
-17.544954 1634.8147 813 4279830542
-16.363302 1635.3541 816 4279830542
-15.126605 1635.5339 817 4279698956
-13.866055 1635.5339 817 4279304198
-12.623854 1635.7137 818 4279697414
-11.394495 1636.0734 820 4279828487
-10.12844 1636.0734 820 4279697408
-8.9009171 1636.6128 823 4279828480
-7.640367 1636.7927 824 4280025610
-6.3853211 1637.1523 826 4280025610
-5.1082568 1637.1523 826 4279895042
-3.8422019 1637.512 828 4279829249
-2.5614679 1637.512 828 4280025610
-1.2807339 1637.512 828 4279631877
0 1637.512 828 4279435264
1.2807339 1637.512 828 4279697408
2.5724771 1638.0514 831 4279501833
3.8697248 1638.411 833 4279238661
5.1669726 1638.5908 834 4279173144
6.4770641 1638.9504 836 4279369755
7.7834864 1639.1302 837 4279500815
9.0935783 1639.3101 838 4279435278
10.39266 1639.3101 838 4279500815
79.244034 1639.3101 838 4278190080
80.543121 1639.3101 838 4278190082
81.842201 1639.3101 838 4278190083
83.141281 1639.3101 838 4278190083
84.321098 1639.1302 837 4278190085
85.618347 1639.1302 837 4278255619
86.915596 1639.1302 837 4278452229
87.838531 1638.5908 834 4278517760
89.130272 1638.5908 834 4278714627
90.293579 1638.411 833 4279369991
91.322937 1638.0514 831 4279896335
92.477066 1637.8716 830 4279896085
93.493576 1637.512 828 4280093464
94.774315 1637.512 828 4280354592
95.917435 1637.3322 827 4280354592
97.196327 1637.3322 827 4280156706
98.333946 1637.1523 826 4278976529
99.611008 1637.1523 826 4278190080
100.59817 1636.7927 824 4281415984
101.72477 1636.6128 823 4284841349
102.69908 1636.2532 821 4289907410
103.81651 1636.0734 820 4292932095
104.77798 1635.7137 818 4291747839
105.88624 1635.5339 817 4288139775
106.99083 1635.3541 816 4282481342
107.93394 1634.9945 814 4278196649
109.02936 1634.8147 813 4278190216
110.1211 1634.6349 812 4278190117
111.37247 1634.6349 812 4278190119
112.62386 1634.6349 812 4278190124
113.54128 1634.2753 810 4281678964
114.62019 1634.0955 809 4279393704
115.35413 1633.5559 806 4287091199
116.5945 1633.5559 806 4290111487
117.66055 1633.3761 805 4290834943
118.89909 1633.3761 805 4292278015
119.95963 1633.1963 804 4289843695
120.8367 1632.8367 802 4279935740
122.06973 1632.8367 802 4278219983
123.11926 1632.6569 801 4278214077
124.35046 1632.6569 801 4285980671
125.58165 1632.6569 801 4289652735
126.62386 1632.4771 800 4290705407
127.85321 1632.4771 800 4291362303
129.08257 1632.4771 800 4289914878
130.31192 1632.4771 800 4289121791
-38.223854 1631.6036 802 4281405213
-36.990826 1631.6036 802 4280947501
-35.757797 1631.6036 802 4280486950
-34.524769 1631.6036 802 4280684567
-33.291744 1631.6036 802 4280421396
-32.058716 1631.6036 802 4280157206
-30.825687 1631.6036 802 4280157206
-29.680735 1631.9596 804 4280091917
-28.486238 1632.1376 805 4280157710
-27.247707 1632.1376 805 4280026372
-26.047707 1632.3156 806 4280026372
-24.807339 1632.3156 806 4280157206
-23.636698 1632.6715 808 4280354842
-22.39266 1632.6715 808 4280356899
-21.179817 1632.8495 809 4280488486
-20.022018 1633.3835 812 4280684567
-18.798164 1633.5615 813 4280355603
-17.622019 1634.0955 816 4279764749
-16.363302 1634.0955 816 4279698956
-15.126605 1634.2734 817 4279959561
-13.886238 1634.4514 818 4279828487
-12.623854 1634.4514 818 4279828487
-11.394495 1634.8074 820 4279828487
-10.143119 1634.9854 821 4279631877
-8.9137611 1635.5193 824 4279959561
-7.6623855 1635.8752 826 4279959567
-6.3944955 1636.0532 827 4280091154
-5.1155963 1636.0532 827 4280090900
-3.8422019 1636.2312 828 4280090900
-2.5688074 1636.5872 830 4279632409
-1.2844037 1636.5872 830 4279369749
0 1636.5872 830 4279697414
1.2844037 1636.5872 830 4280025610
2.5798166 1637.1211 833 4279830542
3.8752294 1637.2991 834 4279962384
5.1816516 1637.655 836 4279962673
6.4954128 1638.011 838 4279896880
7.7944956 1638.011 838 4279896335
80.543121 1638.011 838 4278190080
81.842201 1638.011 838 4278190080
83.141281 1638.011 838 4278190089
84.440369 1638.011 838 4278190089
85.739449 1638.011 838 4278190084
87.038528 1638.011 838 4278190085
88.088074 1637.655 836 4278255619
89.383484 1637.655 836 4278517766
90.42202 1637.2991 834 4279369991
91.583488 1637.1211 833 4279369991
92.609177 1636.7651 831 4279698202
93.761467 1636.5872 830 4279830044
95.045868 1636.5872 830 4279961628
96.055046 1636.2312 828 4280159007
97.335777 1636.2312 828 4280159007
98.475227 1636.0532 827 4280092958
99.611008 1635.8752 826 4279310119
100.59817 1635.5193 824 4278190087
101.87156 1635.5193 824 4278202368
102.99633 1635.3413 823 4283729989
103.96697 1634.9854 821 4288789234
105.08257 1634.8074 820 4292407807
106.04037 1634.4514 818 4292606463
107.14679 1634.2734 817 4291093244
108.24954 1634.0955 816 4286822911
109.18899 1633.7395 814 4279848872
110.28257 1633.5615 813 4278191952
111.53578 1633.5615 813 4278190144
112.62386 1633.3835 812 4278190122
113.54128 1633.0275 810 4278190118
114.62019 1632.8495 809 4278190080
115.69541 1632.6715 808 4279180568
116.5945 1632.3156 806 4281757091
117.66055 1632.1376 805 4285704671
118.72294 1631.9596 804 4282941926
119.95963 1631.9596 804 4278190953
120.65688 1631.4257 801 4278190136
121.88808 1631.4257 801 4278190134
123.11926 1631.4257 801 4278190142
124.16514 1631.2477 800 4278783066
125.39449 1631.2477 800 4282413972
126.62386 1631.2477 800 4287677668
127.47156 1630.8917 798 4287609343
128.69725 1630.8917 798 4280635560
129.92294 1630.8917 798 4278199411
131.14862 1630.8917 798 4278190159
132.37431 1630.8917 798 4278190122
-40.629356 1630.1945 801 4281207320
-39.398167 1630.1945 801 4281273626
-38.166973 1630.1945 801 4281339420
-36.93578 1630.1945 801 4280881447
-35.704586 1630.1945 801 4280552482
-34.524769 1630.3706 802 4280487445
-33.291744 1630.3706 802 4280421396
-32.058716 1630.3706 802 4280224007
-30.825687 1630.3706 802 4280026372
-29.680735 1630.7229 804 4280091917
-28.444036 1630.7229 804 4280026124
-27.247707 1630.899 805 4279960065
-26.047707 1631.0752 806 4280025858
-24.807339 1631.0752 806 4279503389
-23.636698 1631.4275 808 4280358698
-22.39266 1631.4275 808 4280358444
-21.179817 1631.6036 809 4280161322
-20.051376 1632.3082 813 4280554533
-18.825687 1632.4844 814 4280028189
-17.622019 1632.8367 816 4279896085
-16.387156 1633.0128 817 4279698706
-15.126605 1633.0128 817 4279698956
-13.886238 1633.189 818 4279633162
-12.66055 1633.5413 820 4280090900
-11.411009 1633.7174 821 4280156693
-10.172477 1634.0697 823 4280090900
-8.9394493 1634.5981 826 4280090900
-7.6623855 1634.5981 826 4280156693
-6.3944955 1634.7743 827 4280551451
-5.1229358 1634.9504 828 4280224550
-3.8532109 1635.3027 830 4280158501
-2.5724771 1635.4789 831 4279961628
-1.2899083 1635.8312 833 4279830042
0 1635.4789 831 4279763995
1.2899083 1635.8312 833 4279763995
2.5834863 1636.0073 834 4279961880
3.8862386 1636.3596 836 4280093210
5.1889906 1636.5358 837 4279635226
88.212845 1636.5358 837 4278190080
89.383484 1636.3596 836 4278321157
90.42202 1636.0073 834 4278517766
91.71376 1636.0073 834 4278714378
92.873398 1635.8312 833 4278977045
93.895416 1635.4789 831 4279371803
95.045868 1635.3027 830 4279896085
96.330276 1635.3027 830 4280093464
97.335777 1634.9504 828 4280159007
98.616516 1634.9504 828 4280290593
99.754128 1634.7743 827 4279634980
100.88808 1634.5981 826 4278517778
101.87156 1634.2458 824 4278190080
102.99633 1634.0697 823 4281350961
104.26789 1634.0697 823 4284184700
105.23486 1633.7174 821 4289448140
106.34863 1633.5413 820 4292604415
107.30275 1633.189 818 4292078079
108.24954 1632.8367 816 4290440447
109.50826 1632.8367 816 4286558681
110.28257 1632.3082 813 4278216923
111.53578 1632.3082 813 4278199191
112.62386 1632.1321 812 4278190175
113.54128 1631.7798 810 4278190169
114.78899 1631.7798 810 4278190080
115.69541 1631.4275 808 4278190080
116.5945 1631.0752 806 4278195551
117.66055 1630.899 805 4279712646
118.72294 1630.7229 804 4281548185
119.95963 1630.7229 804 4278190158
120.8367 1630.3706 802 4278190121
121.88808 1630.1945 801 4278190122
122.93578 1630.0183 800 4278190092
124.16514 1630.0183 800 4278190093
125.39449 1630.0183 800 4278192953
126.62386 1630.0183 800 4283461533
127.47156 1629.666 798 4286680293
128.69725 1629.666 798 4278191711
129.92294 1629.666 798 4278190141
131.14862 1629.666 798 4278190139
132.37431 1629.666 798 4278190125
133.60001 1629.666 798 4278190137
-41.86055 1628.9633 801 4281273626
-40.629356 1628.9633 801 4281273626
-39.398167 1628.9633 801 4281273626
-38.166973 1628.9633 801 4281668384
-36.93578 1628.9633 801 4280750360
-35.704586 1628.9633 801 4280421396
-34.473396 1628.9633 801 4280356107
-33.242203 1628.9633 801 4280158471
-32.011009 1628.9633 801 4280026372
-30.825687 1629.1376 802 4280026372
-29.592661 1629.1376 802 4280091404
-28.444036 1629.4862 804 4279828487
-27.20734 1629.4862 804 4279631872
-26.009174 1629.6605 805 4279828736
-24.807339 1629.8348 806 4280091695
-23.636698 1630.1835 808 4281407554
-22.39266 1630.1835 808 4281015597
-21.21101 1630.5321 810 4280489253
-20.080734 1631.2294 814 4280292651
-18.880733 1631.578 816 4279832100
-17.647707 1631.7523 817 4279830044
-16.387156 1631.7523 817 4279698202
-15.148623 1631.9266 818 4280025370
-13.926605 1632.2753 820 4280288542
-12.678899 1632.4496 821 4280354592
-11.444036 1632.7982 823 4280354592
-10.187156 1632.9725 824 4280485919
-8.9522934 1633.4954 827 4280354590
-7.6733947 1633.4954 827 4280156956
-6.4036698 1633.6697 828 4280551714
-5.1376147 1634.0183 830 4280421428
-3.8587155 1634.1926 831 4280092206
-2.5798166 1634.5413 833 4280092708
-1.2899083 1634.5413 833 4280092708
0 1634.5413 833 4280156706
1.2917432 1634.7156 834 4280222499
2.5908258 1635.0642 836 4279895837
89.383484 1635.0642 836 4278190080
90.678902 1635.0642 836 4278190087
91.71376 1634.7156 834 4278190089
93.005501 1634.7156 834 4278714386
94.1633 1634.5413 833 4278977045
95.453209 1634.5413 833 4279765253
96.467888 1634.1926 831 4279831046
97.614677 1634.0183 830 4279962384
98.616516 1633.6697 828 4279962384
99.897247 1633.6697 828 4279763995
101.03303 1633.4954 827 4279763995
102.16514 1633.321 826 4278454313
103.14495 1632.9725 824 4278190097
104.26789 1632.7982 823 4278200064
105.53945 1632.7982 823 4284189006
106.50275 1632.4496 821 4289053173
107.30275 1631.9266 818 4292276991
108.40734 1631.7523 817 4292607231
109.50826 1631.578 816 4292212479
110.44404 1631.2294 814 4289714943
111.69908 1631.2294 814 4285438417
112.62386 1630.8807 812 4278211765
113.87523 1630.8807 812 4278194032
114.78899 1630.5321 810 4278190117
115.86606 1630.3578 809 4278190116
116.93945 1630.1835 808 4278190143
117.66055 1629.6605 805 4278190141
118.72294 1629.4862 804 4278190116
119.95963 1629.4862 804 4278190125
120.8367 1629.1376 802 4278191680
121.88808 1628.9633 801 4278192195
122.93578 1628.7889 800 4278190140
124.16514 1628.7889 800 4278190131
125.39449 1628.7889 800 4278190117
126.62386 1628.7889 800 4278190117
127.47156 1628.4404 798 4278190116
128.69725 1628.4404 798 4278190116
129.72844 1628.2661 797 4278190124
130.9523 1628.2661 797 4278190130
132.77065 1628.7889 800 4278191162
134 1628.7889 800 4278190905
135.22935 1628.7889 800 4278192449
136.45871 1628.7889 800 4278192449
137.68808 1628.7889 800 4278192191
-41.86055 1627.7321 801 4280882210
-40.568806 1627.5596 800 4280685088
-39.339451 1627.5596 800 4280750360
-38.166973 1627.7321 801 4280487445
-36.93578 1627.7321 801 4280486675
-35.704586 1627.7321 801 4280355089
-34.473396 1627.7321 801 4280355089
-33.242203 1627.7321 801 4280355089
-32.011009 1627.7321 801 4280092165
-30.825687 1627.9045 802 4280157958
-29.592661 1627.9045 802 4280157710
-28.359632 1627.9045 802 4279894538
-27.20734 1628.2495 804 4280418304
-26.009174 1628.422 805 4280680448
-24.807339 1628.5945 806 4279895837
-23.636698 1628.9395 808 4281145648
-22.458715 1629.2844 810 4280622636
-21.304586 1629.8019 813 4280491050
-20.13945 1630.3192 816 4280553531
-18.908257 1630.4917 817 4280027187
-17.647707 1630.4917 817 4280290593
-16.411009 1630.6642 818 4279764249
-15.19266 1631.0092 820 4280025610
-13.946789 1631.1816 821 4280617748
-12.715596 1631.5266 823 4280947501
-11.46055 1631.6991 824 4280684586
-10.216514 1632.0441 826 4280684067
-8.9522934 1632.2166 827 4280684067
-7.6844039 1632.389 828 4280289048
-6.4220185 1632.7339 830 4280486171
-5.1449542 1632.9064 831 4280356136
-3.8697248 1633.2513 833 4280356136
-2.5834863 1633.4238 834 4280551712
-1.2917432 1633.4238 834 4280617505
0 1633.2513 833 4280684067
93.005501 1633.4238 834 4278321164
94.297249 1633.4238 834 4278714386
95.453209 1633.2513 833 4278977293
96.743118 1633.2513 833 4279174929
97.754128 1632.9064 831 4279697939
98.899086 1632.7339 830 4279961110
99.897247 1632.389 828 4280157206
101.03303 1632.2166 827 4280354842
102.31193 1632.2166 827 4280159007
103.4422 1632.0441 826 4279369747
104.41835 1631.6991 824 4278190080
105.53945 1631.5266 823 4281481777
106.81101 1631.5266 823 4285038992
107.77065 1631.1816 821 4290039259
108.56514 1630.6642 818 4292145663
109.66789 1630.4917 817 4292013823
110.76698 1630.3192 816 4291491071
111.69908 1629.9744 814 4289254386
112.78899 1629.8019 813 4284393983
113.87523 1629.6294 812 4278209203
114.78899 1629.2844 810 4278190205
116.0367 1629.2844 810 4278190200
117.11192 1629.1119 809 4278190116
117.83486 1628.5945 806 4278190121
118.89909 1628.422 805 4278190130
119.95963 1628.2495 804 4278190905
120.65688 1627.7321 801 4278192449
121.88808 1627.7321 801 4278192449
122.93578 1627.5596 800 4278191941
124.16514 1627.5596 800 4278190657
125.39449 1627.5596 800 4278190137
126.62386 1627.5596 800 4278190129
127.47156 1627.2147 798 4278190121
128.69725 1627.2147 798 4278190127
129.72844 1627.0422 797 4278190392
130.9523 1627.0422 797 4278190905
132.37431 1627.2147 798 4278191162
133.60001 1627.2147 798 4278191419
134.82568 1627.2147 798 4278191939
136.05138 1627.2147 798 4278192453
137.27707 1627.2147 798 4278192453
-41.86055 1626.501 801 4280947501
-40.447708 1625.989 798 4280684586
-39.222019 1625.989 798 4280552734
-38.110092 1626.3303 800 4280289562
-36.880733 1626.3303 800 4280157206
-35.651375 1626.3303 800 4280157206
-34.42202 1626.3303 800 4280157710
-33.192661 1626.3303 800 4280223503
-32.011009 1626.501 801 4280092165
-30.779816 1626.501 801 4280157958
-29.592661 1626.6715 802 4280156693
-28.359632 1626.6715 802 4280419864
-27.20734 1627.0128 804 4281015304
-26.047707 1627.3541 806 4281146890
-24.880733 1627.6954 808 4280949804
-23.706423 1628.0367 810 4281015597
-22.524771 1628.3779 812 4281213482
-21.304586 1628.5486 813 4281542191
-20.168808 1629.2312 817 4281214023
-18.908257 1629.2312 817 4280095542
-17.673395 1629.4019 818 4280554533
-16.458715 1629.7432 820 4280685862
-15.214679 1629.9138 821 4280816667
-13.987156 1630.255 823 4281409060
-12.733945 1630.4257 824 4281409351
-11.46055 1630.4257 824 4281080386
-10.245872 1631.1083 828 4280488486
-8.9651375 1631.1083 828 4280093984
-7.7064219 1631.4496 830 4280026124
-6.4311929 1631.6202 831 4280026124
-5.1596332 1631.9614 833 4280222749
-3.8752294 1632.1321 834 4280551714
0 1632.1321 834 4281278494
94.297249 1632.1321 834 4278190087
95.588989 1632.1321 834 4278648840
96.743118 1631.9614 833 4279109135
98.033028 1631.9614 833 4279109383
99.040367 1631.6202 831 4279175176
100.18349 1631.4496 830 4279698202
101.17798 1631.1083 828 4279895837
102.31193 1630.9376 827 4280092708
103.4422 1630.767 826 4280619052
104.71927 1630.767 826 4278781967
105.69174 1630.4257 824 4278190080
106.81101 1630.255 823 4278533376
107.77065 1629.9138 821 4285441878
108.88074 1629.7432 820 4289251071
109.82752 1629.4019 818 4291948799
110.76698 1629.0605 816 4292344319
111.69908 1628.7192 814 4292212735
112.78899 1628.5486 813 4290965247
113.87523 1628.3779 812 4288728306
114.78899 1628.0367 810 4283337977
116.0367 1628.0367 810 4278198670
117.11192 1627.8661 809 4278190137
118.18349 1627.6954 808 4278190130
118.89909 1627.1835 805 4278190125
119.95963 1627.0128 804 4278190130
120.65688 1626.501 801 4278192191
121.88808 1626.501 801 4278192191
122.93578 1626.3303 800 4278191939
124.16514 1626.3303 800 4278191682
125.39449 1626.3303 800 4278190912
126.24587 1625.989 798 4278190912
127.47156 1625.989 798 4278190912
128.69725 1625.989 798 4278191169
129.72844 1625.8184 797 4278192443
130.9523 1625.8184 797 4278192186
132.17615 1625.8184 797 4278191930
133.39999 1625.8184 797 4278191930
134.62386 1625.8184 797 4278192191
135.8477 1625.8184 797 4278192191
136.86606 1625.6477 796 4278191939
-43.027523 1625.101 800 4281405717
-41.798164 1625.101 800 4280815904
-40.447708 1624.7633 798 4280552988
-39.222019 1624.7633 798 4280421396
-37.99633 1624.7633 798 4280355603
-36.770641 1624.7633 798 4280157206
-35.544952 1624.7633 798 4280025620
-34.42202 1625.101 800 4280091404
-33.093578 1624.7633 798 4280091404
-31.963303 1625.101 800 4280157710
-30.779816 1625.2698 801 4280157710
-29.592661 1625.4385 802 4279961110
-28.444036 1625.7761 804 4281276970
-27.288073 1626.1138 806 4280952102
-26.124771 1626.4514 808 4280952102
-24.917431 1626.6202 809 4281016640
-23.706423 1626.7889 810 4280819517
-22.557798 1627.2954 813 4281016640
-21.335779 1627.4642 814 4281214275
-20.168808 1627.9707 817 4281279816
-18.93578 1628.1394 818 4280358714
-17.724771 1628.4771 820 4280488992
-16.458715 1628.4771 820 4280554785
-15.258716 1628.9835 823 4280882210
-13.987156 1628.9835 823 4281079845
-12.733945 1629.1523 824 4280882992
-11.493578 1629.4899 826 4280817198
-10.245872 1629.8275 828 4280750110
-8.9908257 1630.1652 830 4280355353
-7.7064219 1630.1652 830 4280549378
-6.4495411 1630.6715 833 4280614916
96.743118 1630.6715 833 4278321163
98.033028 1630.6715 833 4279238661
99.040367 1630.334 831 4279304198
100.18349 1630.1652 830 4280025107
101.46789 1630.1652 830 4280419864
102.45872 1629.8275 828 4280157206
103.59083 1629.6587 827 4281012515
104.86973 1629.6587 827 4280290845
105.99633 1629.4899 826 4278779910
106.96514 1629.1523 824 4278190080
108.08257 1628.9835 823 4282995272
109.03853 1628.6459 821 4286485947
110.14679 1628.4771 820 4291025663
110.92844 1627.9707 817 4292081663
112.02569 1627.8019 816 4291489535
112.78899 1627.2954 813 4291098111
113.87523 1627.1266 812 4290242815
115.1266 1627.1266 812 4288533247
116.0367 1626.7889 810 4283599047
117.2844 1626.7889 810 4278202298
118.3578 1626.6202 809 4278190220
118.89909 1625.9449 805 4278190150
119.95963 1625.7761 804 4278190152
120.8367 1625.4385 802 4278190133
121.88808 1625.2698 801 4278190908
122.93578 1625.101 800 4278192453
124.16514 1625.101 800 4278191682
125.39449 1625.101 800 4278191421
126.24587 1624.7633 798 4278191678
127.28073 1624.5945 797 4278191930
128.50459 1624.5945 797 4278191930
129.72844 1624.5945 797 4278191680
130.75597 1624.4257 796 4278191937
131.97798 1624.4257 796 4278191428
133.2 1624.4257 796 4278191171
134.42201 1624.4257 796 4278191680
135.64404 1624.4257 796 4278191937
136.45505 1624.0881 794 4278191428
-41.673393 1623.5376 798 4280685071
-40.387157 1623.3706 797 4280356107
-39.163303 1623.3706 797 4280355089
-37.939449 1623.3706 797 4280355089
-36.715595 1623.3706 797 4279961880
-35.491745 1623.3706 797 4279830294
-34.319267 1623.5376 798 4279764749
-33.044037 1623.3706 797 4279764749
-31.867889 1623.5376 798 4280157206
-30.779816 1624.0386 801 4280354842
-29.592661 1624.2056 802 4280290593
-28.359632 1624.2056 802 4281474611
-27.288073 1624.8734 806 4280951850
-26.124771 1625.2073 808 4282004539
-24.880733 1625.2073 808 4280950597
-23.706423 1625.5413 810 4280753474
-22.557798 1626.0422 813 4280819267
-21.398165 1626.5431 816 4280950597
-20.198166 1626.8771 818 4281017394
-18.93578 1626.8771 818 4280622636
-17.724771 1627.2111 820 4280884763
-16.482569 1627.3779 821 4280226833
-15.258716 1627.7119 823 4280290845
-14.007339 1627.8789 824 4280356638
-12.770642 1628.2129 826 4280357149
-11.510092 1628.3798 827 4280094234
-10.275229 1628.8807 830 4280552734
-8.9908257 1628.8807 830 4280486941
100.32661 1629.0477 831 4279435276
101.46789 1628.8807 830 4279763986
102.45872 1628.5468 828 4280157710
103.73945 1628.5468 828 4280552468
104.86973 1628.3798 827 4280552482
105.99633 1628.2129 826 4280026138
107.27339 1628.2129 826 4278190084
108.23853 1627.8789 824 4278190080
109.35413 1627.7119 823 4278403840
110.30642 1627.3779 821 4286759533
111.41284 1627.2111 820 4290042111
112.18899 1626.7101 817 4291423743
112.95413 1626.2092 814 4291556607
113.87523 1625.8752 812 4291556607
115.1266 1625.8752 812 4291621631
116.0367 1625.5413 810 4290897919
117.2844 1625.5413 810 4287677439
118.3578 1625.3743 809 4281295539
119.07523 1624.8734 806 4278196874
120.13761 1624.7064 805 4278190186
120.8367 1624.2056 802 4278190112
121.88808 1624.0386 801 4278190119
123.11926 1624.0386 801 4278190919
124.16514 1623.8716 800 4278191434
125.39449 1623.8716 800 4278192191
126.24587 1623.5376 798 4278192449
127.28073 1623.3706 797 4278192186
128.50459 1623.3706 797 4278192443
129.53395 1623.2036 796 4278192191
130.75597 1623.2036 796 4278192449
131.97798 1623.2036 796 4278191438
133.2 1623.2036 796 4278191180
134.42201 1623.2036 796 4278191941
135.23669 1622.8698 794 4278192456
136.24954 1622.7028 793 4278192962
137.25871 1622.5358 792 4278192705
-41.611008 1622.1467 797 4280421396
-40.387157 1622.1467 797 4280487445
-39.163303 1622.1467 797 4280093961
-37.939449 1622.1467 797 4280093961
-36.715595 1622.1467 797 4280093713
-35.491745 1622.1467 797 4280093713
-34.267891 1622.1467 797 4279896839
-33.044037 1622.1467 797 4279896839
-31.867889 1622.3119 798 4280224007
-30.733946 1622.6422 800 4280355593
-29.592661 1622.9725 802 4280552734
-28.359632 1622.9725 802 4280881699
-27.247707 1623.4679 805 4280293927
-26.124771 1623.9633 808 4281412151
-24.954128 1624.2936 810 4280821548
-23.776146 1624.6239 812 4280690218
-22.656881 1625.2844 816 4280819016
-21.429358 1625.4496 817 4280950345
-20.198166 1625.6146 818 4280951600
-18.990826 1625.9449 820 4280688429
-17.750458 1626.1101 821 4280359970
-16.530275 1626.4404 823 4279570197
-15.280734 1626.6055 824 4279896335
-14.007339 1626.6055 824 4280159507
-12.788991 1627.101 827 4280159003
-11.526606 1627.2661 828 4280356638
-10.275229 1627.5963 830 4280684567
-9.0036697 1627.7615 831 4280947996
101.61285 1627.7615 831 4279501327
102.7523 1627.5963 830 4279895315
103.73945 1627.2661 828 4280355866
104.86973 1627.101 827 4280225052
