# .PCD v0.7 - Point Cloud Data file format
VERSION 0.7
FIELDS x y z rgb
SIZE 4 4 4 4
TYPE F F F U
COUNT 1 1 1 1
WIDTH 1361
HEIGHT 1
VIEWPOINT 0 0 0 1 0 0 0
POINTS 1361
DATA ascii
125.8 1575.4771 759 4293132287
126.95413 1575.4771 759 4293525503
128.10826 1575.4771 759 4293722111
129.26239 1575.4771 759 4293394431
130.41652 1575.4771 759 4293328895
131.989 1575.679 761 4293394431
-46.752293 1575.1156 767 4283510834
-45.583485 1575.1156 767 4283379505
-44.344955 1575.0165 766 4283509823
-43.177982 1575.0165 766 4282720307
-42.011009 1575.0165 766 4283112487
-40.844036 1575.0165 766 4282783522
-39.677063 1575.0165 766 4282717979
-38.51009 1575.0165 766 4282717979
-37.343121 1575.0165 766 4282718483
-36.176147 1575.0165 766 4282718483
-35.009174 1575.0165 766 4282784004
-33.842201 1575.0165 766 4282652675
118.87523 1574.323 759 4293328895
120.02936 1574.323 759 4293459967
121.18349 1574.323 759 4293525503
122.33762 1574.323 759 4293394431
123.49174 1574.323 759 4293459967
124.64587 1574.323 759 4293132287
125.8 1574.323 759 4293132287
126.7523 1574.2239 758 4293197823
127.90459 1574.2239 758 4293197823
129.05688 1574.2239 758 4292935423
130.20917 1574.2239 758 4293197823
131.77982 1574.422 760 4293591039
-47.921101 1573.9468 767 4283969840
-46.678898 1573.8495 766 4284171069
-45.511925 1573.8495 766 4284236862
-44.344955 1573.8495 766 4284169552
-43.177982 1573.8495 766 4282722106
-41.944954 1573.7523 765 4283375403
-40.779816 1573.7523 765 4283046438
-39.614677 1573.7523 765 4282847512
-38.51009 1573.8495 766 4282913305
-37.343121 1573.8495 766 4282913809
-36.176147 1573.8495 766 4282848016
-34.954128 1573.7523 765 4282848000
-33.78899 1573.7523 765 4282979843
115.64037 1572.6826 754 4293132287
117.53394 1573.0715 758 4293197823
118.68624 1573.0715 758 4293132287
119.83853 1573.0715 758 4293132287
121.18349 1573.1688 759 4293263359
122.14312 1573.0715 758 4293394431
123.29541 1573.0715 758 4293459967
124.44771 1573.0715 758 4293132287
125.6 1573.0715 758 4293263359
126.55046 1572.9744 757 4293197823
127.70092 1572.9744 757 4293197823
129.05688 1573.0715 758 4293459967
130.20917 1573.0715 758 4293591039
131.57065 1573.1688 759 4293525503
132.93578 1573.2661 760 4293263359
-46.678898 1572.6826 766 4283842116
-45.511925 1572.6826 766 4283842116
-44.344955 1572.6826 766 4283905612
-43.177982 1572.6826 766 4282918717
-41.944954 1572.5872 765 4283375403
-40.779816 1572.5872 765 4282980645
-39.614677 1572.5872 765 4283306503
-38.449543 1572.5872 765 4283240710
-37.284405 1572.5872 765 4283240710
-36.119267 1572.5872 765 4283306503
-34.954128 1572.5872 765 4282849280
-33.735779 1572.4917 764 4282849280
115.64037 1571.5376 754 4293197823
117.34679 1571.8239 757 4293787647
118.49725 1571.8239 757 4293656575
119.64771 1571.8239 757 4293066751
120.99083 1571.9193 758 4293132287
122.14312 1571.9193 758 4293394431
123.09908 1571.8239 757 4293525503
124.24954 1571.8239 757 4293132287
125.4 1571.8239 757 4293263359
126.55046 1571.8239 757 4293394431
127.70092 1571.8239 757 4293459967
128.85138 1571.8239 757 4293328895
130.00183 1571.8239 757 4293394431
131.57065 1572.0146 759 4293525503
132.93578 1572.1101 760 4293394431
-46.678898 1571.5156 766 4283181860
-45.511925 1571.5156 766 4283379239
-44.27523 1571.422 765 4283575085
-43.110092 1571.422 765 4283311913
-41.944954 1571.422 765 4283375652
-40.715595 1571.3285 764 4283112737
-39.552292 1571.3285 764 4283044884
-38.388992 1571.3285 764 4283044884
-37.225689 1571.3285 764 4283110912
-36.062386 1571.3285 764 4283176704
-34.78899 1571.1412 762 4282849536
-33.629356 1571.1412 762 4282915328
-32.41835 1571.0477 761 4282848768
115.82569 1570.4862 755 4293591039
117.34679 1570.6733 757 4293656575
118.49725 1570.6733 757 4293591039
119.64771 1570.6733 757 4293525503
120.79816 1570.6733 757 4293591039
121.94862 1570.6733 757 4293525503
123.09908 1570.6733 757 4293722111
123.85321 1570.4862 755 4293591039
125 1570.4862 755 4293525503
126.14679 1570.4862 755 4293132287
127.29358 1570.4862 755 4293263359
128.85138 1570.6733 757 4293394431
130.00183 1570.6733 757 4293722111
131.36147 1570.767 758 4293918719
-45.440369 1570.2568 765 4283442981
-44.205505 1570.1652 764 4283311913
-43.042202 1570.1652 764 4283311913
-41.878899 1570.1652 764 4283375652
-40.587154 1569.9817 762 4283112737
-39.427525 1569.9817 762 4283176985
-38.20734 1569.8899 761 4283176985
-37.049541 1569.8899 761 4283112705
-35.891743 1569.8899 761 4283112705
-34.733944 1569.8899 761 4283046912
-33.576145 1569.8899 761 4283046912
-32.366974 1569.7982 760 4282980608
-31.161469 1569.7064 759 4282980608
112.98716 1569.0642 752 4293525503
114.12844 1569.0642 752 4293394431
115.64037 1569.2477 754 4293525503
116.97248 1569.3395 755 4293394431
118.11926 1569.3395 755 4293525503
119.26605 1569.3395 755 4293066751
120.41284 1569.3395 755 4293066751
121.55963 1569.3395 755 4293001215
122.70642 1569.3395 755 4293394431
123.85321 1569.3395 755 4293656575
125 1569.3395 755 4293591039
126.14679 1569.3395 755 4292804607
127.29358 1569.3395 755 4292739071
128.44037 1569.3395 755 4292935679
130.00183 1569.5229 757 4293263359
131.1523 1569.5229 757 4292804607
-44.205505 1569.0018 764 4283179814
-42.906422 1568.822 762 4283311143
-41.746788 1568.822 762 4283441698
-40.587154 1568.822 762 4283046940
-39.365139 1568.7321 761 4283111454
-38.20734 1568.7321 761 4283111454
-37.049541 1568.7321 761 4282915079
-35.891743 1568.7321 761 4282915079
-34.733944 1568.7321 761 4282915079
-33.576145 1568.7321 761 4283046408
-32.366974 1568.6422 760 4282849284
-31.111927 1568.4624 758 4282915333
112.98716 1567.923 752 4293459967
114.12844 1567.923 752 4293394431
115.45505 1568.0128 753 4293525503
116.78532 1568.1028 754 4293394431
117.93027 1568.1028 754 4293722111
119.07523 1568.1028 754 4293722111
120.22018 1568.1028 754 4293787647
121.55963 1568.1926 755 4293394431
122.51009 1568.1028 754 4293525503
123.65504 1568.1028 754 4293591039
124.8 1568.1028 754 4293787647
125.94495 1568.1028 754 4293525503
127.29358 1568.1926 755 4293525503
128.44037 1568.1926 755 4293459967
129.58716 1568.1926 755 4293853183
131.1523 1568.3724 757 4293525503
-45.225689 1567.6624 762 4283048477
-44.066055 1567.6624 762 4283114770
-42.906422 1567.6624 762 4283377942
-41.746788 1567.6624 762 4283180064
-40.587154 1567.6624 762 4282916891
-39.365139 1567.5743 761 4282916378
-38.14679 1567.4862 760 4282916378
-36.990826 1567.4862 760 4282785303
-35.834862 1567.4862 760 4282785303
-34.678898 1567.4862 760 4282784276
-33.522934 1567.4862 760 4282784276
-32.315598 1567.3982 759 4282784276
-31.111927 1567.3101 758 4282718483
-29.959633 1567.3101 758 4282653717
111.84587 1566.7816 752 4293459967
112.98716 1566.7816 752 4293656575
114.12844 1566.7816 752 4293853183
115.45505 1566.8698 753 4293787647
116.59817 1566.8698 753 4293394431
117.74129 1566.8698 753 4293591039
118.88441 1566.8698 753 4293263359
120.02752 1566.8698 753 4293263359
121.17064 1566.8698 753 4293459967
122.51009 1566.9578 754 4293394431
123.45688 1566.8698 753 4292739071
124.6 1566.8698 753 4293328895
125.74312 1566.8698 753 4293591039
127.0899 1566.9578 754 4293525503
128.44037 1567.0459 755 4293197823
129.58716 1567.0459 755 4293525503
131.1523 1567.222 757 4293394431
-44.066055 1566.5028 762 4282917380
-42.906422 1566.5028 762 4283246344
-41.680733 1566.4165 761 4283245329
-40.522934 1566.4165 761 4283113487
-39.365139 1566.4165 761 4282850079
-38.14679 1566.3303 760 4282915872
-36.990826 1566.3303 760 4282850329
-35.777981 1566.244 759 4282850329
-34.623852 1566.244 759 4282914581
-33.469727 1566.244 759 4283045910
-32.264221 1566.1578 758 4282848532
-31.062386 1566.0715 757 4282848532
-29.911926 1566.0715 757 4282718483
-28.807339 1566.1578 758 4282652434
-27.655046 1566.1578 758 4282783506
110.5266 1565.5541 751 4294377471
111.66605 1565.5541 751 4293984255
112.8055 1565.5541 751 4294115327
113.94495 1565.5541 751 4293853183
115.26972 1565.6404 752 4293787647
116.41101 1565.6404 752 4293787647
117.55229 1565.6404 752 4293853183
118.69358 1565.6404 752 4293394431
119.83486 1565.6404 752 4293394431
120.97615 1565.6404 752 4293263359
122.11743 1565.6404 752 4293197823
123.25871 1565.6404 752 4293066751
124.4 1565.6404 752 4293591039
125.54128 1565.6404 752 4293525503
126.88624 1565.7266 753 4293525503
128.23486 1565.8129 754 4293525503
129.37982 1565.8129 754 4293525503
130.73395 1565.899 755 4293394431
-42.838531 1565.2587 761 4283442953
-41.680733 1565.2587 761 4282982171
-40.522934 1565.2587 761 4282850329
-39.302753 1565.1743 760 4282784797
-38.14679 1565.1743 760 4282850846
-36.93211 1565.09 759 4282982171
-35.7211 1565.0055 758 4282916378
-34.568806 1565.0055 758 4283045910
-33.416515 1565.0055 758 4283111703
-32.264221 1565.0055 758 4282914075
-31.062386 1564.9211 757 4282848282
-29.911926 1564.9211 757 4282848532
-28.761467 1564.9211 757 4282848532
-27.655046 1565.0055 758 4282914307
-26.502752 1565.0055 758 4282914307
109.21101 1564.3303 750 4293853183
110.5266 1564.4147 751 4293853183
111.66605 1564.4147 751 4293132287
112.62386 1564.3303 750 4293328895
113.76147 1564.3303 750 4293525503
115.0844 1564.4147 751 4293525503
116.22385 1564.4147 751 4293853183
117.3633 1564.4147 751 4293918719
118.50275 1564.4147 751 4293394431
119.6422 1564.4147 751 4293394431
120.78165 1564.4147 751 4293001215
121.9211 1564.4147 751 4293001215
123.25871 1564.499 752 4293394431
124.4 1564.499 752 4293459967
125.54128 1564.499 752 4293132287
126.68257 1564.499 752 4293394431
128.02936 1564.5835 753 4293394431
129.37982 1564.6678 754 4293263359
-41.680733 1564.101 761 4282982171
-40.522934 1564.101 761 4282916378
-39.302753 1564.0183 760 4282915872
-38.086239 1563.9358 759 4282784286
-36.93211 1563.9358 759 4282784789
-35.7211 1563.8533 758 4282652947
-34.568806 1563.8533 758 4282848532
-33.416515 1563.8533 758 4282914581
-32.212845 1563.7706 757 4283045154
-31.062386 1563.7706 757 4282848032
-29.911926 1563.7706 757 4282784004
-28.761467 1563.7706 757 4282652675
-27.61101 1563.7706 757 4282718981
-26.46055 1563.7706 757 4282718981
109.21101 1563.1926 750 4293853183
110.34863 1563.1926 750 4293984255
111.48624 1563.1926 750 4293525503
112.62386 1563.1926 750 4293525503
113.76147 1563.1926 750 4293591039
114.89909 1563.1926 750 4293525503
116.0367 1563.1926 750 4293722111
117.17431 1563.1926 750 4293918719
118.31193 1563.1926 750 4293722111
119.44954 1563.1926 750 4293787647
120.58716 1563.1926 750 4293394431
121.9211 1563.2753 751 4293525503
123.06055 1563.2753 751 4293394431
124.2 1563.2753 751 4293525503
125.33945 1563.2753 751 4293525503
126.68257 1563.3578 752 4293591039
128.02936 1563.4404 753 4293591039
-41.680733 1562.9431 761 4283048477
-40.522934 1562.9431 761 4282916891
-39.240368 1562.7816 759 4282982171
-38.086239 1562.7816 759 4282784535
-36.873394 1562.7009 758 4283046408
-35.7211 1562.7009 758 4282915079
-34.51376 1562.6202 757 4282915584
-33.363304 1562.6202 757 4283112705
-32.110092 1562.4587 755 4282784276
-30.963303 1562.4587 755 4282784276
-29.816513 1562.4587 755 4282587392
-28.761467 1562.6202 757 4282653184
-27.61101 1562.6202 757 4282457090
-26.46055 1562.6202 757 4282391297
-25.310091 1562.6202 757 4282390545
107.72477 1561.8936 748 4293853183
109.03486 1561.9744 749 4293722111
110.17064 1561.9744 749 4293918719
111.30642 1561.9744 749 4293394431
112.62386 1562.0551 750 4293591039
113.57798 1561.9744 749 4293853183
114.71376 1561.9744 749 4293787647
115.84954 1561.9744 749 4293591039
116.98532 1561.9744 749 4293722111
118.1211 1561.9744 749 4293328895
119.25688 1561.9744 749 4293394431
120.39266 1561.9744 749 4293328895
121.72477 1562.0551 750 4293394431
122.86239 1562.0551 750 4292673535
124.2 1562.1357 751 4293197823
125.33945 1562.1357 751 4293591039
126.68257 1562.2166 752 4293525503
-41.614677 1561.7064 760 4282982182
-40.458717 1561.7064 760 4283047975
-39.240368 1561.6276 759 4283179280
-38.086239 1561.6276 759 4283047694
-36.873394 1561.5486 758 4283047684
-35.664219 1561.4697 757 4282981891
-34.51376 1561.4697 757 4283047168
-33.256882 1561.3119 755 4283047168
-32.058716 1561.233 754 4282849284
-30.913761 1561.233 754 4282783491
-29.768806 1561.233 754 4282848512
-28.623854 1561.233 754 4282914304
-27.522936 1561.3119 755 4282784004
-26.376146 1561.3119 755 4282784004
-25.229359 1561.3119 755 4282455834
106.59083 1560.7596 748 4294049791
107.72477 1560.7596 748 4293787647
108.85872 1560.7596 748 4293787647
110.17064 1560.8385 749 4294049791
111.1266 1560.7596 748 4293656575
112.4422 1560.8385 749 4293984255
113.57798 1560.8385 749 4293918719
114.71376 1560.8385 749 4293853183
115.84954 1560.8385 749 4293853183
116.79633 1560.7596 748 4293918719
117.93027 1560.7596 748 4293525503
119.06422 1560.7596 748 4293656575
120.39266 1560.8385 749 4293787647
121.52844 1560.8385 749 4294180863
122.86239 1560.9175 750 4293525503
124 1560.9175 750 4293591039
125.33945 1560.9963 751 4293787647
126.4789 1560.9963 751 4293984255
127.82385 1561.0752 752 4293525503
-40.394497 1560.4734 759 4282982947
-39.240368 1560.4734 759 4283114270
-38.025688 1560.3964 758 4282916891
-36.814678 1560.3192 757 4283113478
-35.550457 1560.1652 755 4283113478
-34.403671 1560.1652 755 4283112705
-33.203671 1560.0881 754 4283112705
-32.058716 1560.0881 754 4282849284
-30.86422 1560.011 753 4282849284
-29.721102 1560.011 753 4282718981
-28.577982 1560.011 753 4282653188
-27.478899 1560.0881 754 4282718981
-26.333944 1560.0881 754 4282718981
-25.148624 1560.011 753 4282522131
105.45688 1559.6257 748 4293656575
106.59083 1559.6257 748 4293853183
107.72477 1559.6257 748 4293787647
108.85872 1559.6257 748 4293459967
109.99266 1559.6257 748 4293656575
111.1266 1559.6257 748 4293459967
112.26055 1559.6257 748 4293525503
113.39449 1559.6257 748 4293722111
114.52844 1559.6257 748 4293787647
115.66238 1559.6257 748 4293591039
116.79633 1559.6257 748 4293656575
117.93027 1559.6257 748 4293328895
119.06422 1559.6257 748 4293394431
120.39266 1559.7028 749 4293197823
121.52844 1559.7028 749 4293591039
122.86239 1559.7798 750 4293328895
124 1559.7798 750 4293394431
125.33945 1559.8569 751 4293591039
126.4789 1559.8569 751 4293787647
-39.177982 1559.244 758 4283244323
-38.025688 1559.244 758 4283178530
-36.814678 1559.1688 757 4283047435
-35.550457 1559.0183 755 4283047435
-34.348625 1558.9431 754 4283112705
-33.203671 1558.9431 754 4282915584
-32.007339 1558.8679 753 4282849284
-30.86422 1558.8679 753 4282849284
-29.721102 1558.8679 753 4282784004
-28.577982 1558.8679 753 4282784004
-27.434862 1558.8679 753 4282783506
-26.291742 1558.8679 753 4282783506
-25.108257 1558.7926 752 4282784004
-23.966972 1558.7926 752 4282652675
103.98532 1558.3413 746 4293722111
105.11559 1558.3413 746 4293918719
106.24587 1558.3413 746 4293918719
107.37614 1558.3413 746 4293984255
108.85872 1558.4917 748 4293525503
109.99266 1558.4917 748 4293853183
110.76698 1558.3413 746 4293525503
112.26055 1558.4917 748 4293459967
113.02752 1558.3413 746 4293525503
114.1578 1558.3413 746 4293918719
115.28807 1558.3413 746 4293918719
116.41835 1558.3413 746 4293918719
117.54862 1558.3413 746 4293525503
118.6789 1558.3413 746 4293722111
120.19817 1558.4917 748 4293459967
121.33211 1558.4917 748 4293722111
122.66422 1558.567 749 4293394431
124 1558.6422 750 4293525503
125.33945 1558.7174 751 4293525503
-39.115597 1558.0183 757 4283179312
-37.965137 1558.0183 757 4283047725
-36.697247 1557.8716 755 4283113228
-35.550457 1557.8716 755 4283113228
-34.348625 1557.7982 754 4283178498
-33.150459 1557.7247 753 4282915584
-32.007339 1557.7247 753 4283046408
-30.86422 1557.7247 753 4283046408
-29.721102 1557.7247 753 4282784004
-28.53211 1557.6514 752 4282652675
-27.390825 1557.6514 752 4282651921
-26.249542 1557.6514 752 4282586128
-25.108257 1557.6514 752 4282652675
-23.92844 1557.578 751 4282784004
-22.78899 1557.578 751 4282718981
-21.614679 1557.5046 750 4282718981
103.18899 1557.3578 748 4293722111
104.32294 1557.3578 748 4293722111
105.11559 1557.2111 746 4293722111
106.24587 1557.2111 746 4293525503
107.37614 1557.2111 746 4293722111
108.50642 1557.2111 746 4293525503
109.6367 1557.2111 746 4293787647
110.76698 1557.2111 746 4293525503
111.89725 1557.2111 746 4293525503
113.02752 1557.2111 746 4293459967
114.1578 1557.2111 746 4293722111
115.28807 1557.2111 746 4293459967
116.41835 1557.2111 746 4293394431
117.54862 1557.2111 746 4293132287
118.6789 1557.2111 746 4293263359
120.19817 1557.3578 748 4293001215
121.33211 1557.3578 748 4293328895
122.46606 1557.3578 748 4293197823
123.8 1557.4312 749 4293328895
-37.844036 1556.7247 755 4283047487
-36.697247 1556.7247 755 4283112224
-35.550457 1556.7247 755 4283243553
-34.348625 1556.6532 754 4283112705
-33.150459 1556.5817 753 4283112705
-32.007339 1556.5817 753 4282915079
-30.86422 1556.5817 753 4283046408
-29.721102 1556.5817 753 4282915079
-28.53211 1556.5101 752 4282849286
-27.390825 1556.5101 752 4282718981
-26.249542 1556.5101 752 4282718981
-25.06789 1556.4385 751 4282916359
-23.92844 1556.4385 751 4283047946
-22.752293 1556.3669 750 4282785823
-21.579817 1556.2954 749 4282522394
-20.444036 1556.2954 749 4282783506
-19.308256 1556.2954 749 4282849299
-18.172478 1556.2954 749 4282848016
-17.036697 1556.2954 749 4282848016
102.85505 1556.0807 746 4293853183
103.98532 1556.0807 746 4293984255
105.11559 1556.0807 746 4294115327
106.24587 1556.0807 746 4294049791
107.37614 1556.0807 746 4294180863
108.50642 1556.0807 746 4293984255
109.6367 1556.0807 746 4294180863
110.76698 1556.0807 746 4294115327
111.89725 1556.0807 746 4294180863
112.84404 1556.0092 745 4293787647
114.1578 1556.0807 746 4293918719
115.28807 1556.0807 746 4293656575
116.41835 1556.0807 746 4293525503
117.54862 1556.0807 746 4293459967
118.6789 1556.0807 746 4293656575
120.19817 1556.2239 748 4293656575
121.33211 1556.2239 748 4293918719
122.46606 1556.2239 748 4293787647
123.6 1556.2239 748 4293984255
-36.814678 1555.7174 757 4282982434
-35.550457 1555.578 755 4282916385
-34.348625 1555.5083 754 4283112987
-33.150459 1555.4385 753 4282915351
-32.007339 1555.4385 753 4283047435
-30.86422 1555.4385 753 4283047435
-29.673395 1555.3688 752 4282981385
-28.53211 1555.3688 752 4282981385
-27.390825 1555.3688 752 4283046408
-26.20734 1555.2991 751 4283046408
-25.06789 1555.2991 751 4283046408
-23.889908 1555.2294 750 4283178251
-22.752293 1555.2294 750 4282850329
-21.579817 1555.1597 749 4282784535
-20.444036 1555.1597 749 4282718483
-19.308256 1555.1597 749 4282652434
-18.172478 1555.1597 749 4282849284
-17.036697 1555.1597 749 4282915333
-15.900917 1555.1597 749 4282651921
102.68807 1554.8807 745 4293984255
103.81651 1554.8807 745 4293787647
104.94495 1554.8807 745 4293984255
106.07339 1554.8807 745 4293853183
107.20184 1554.8807 745 4293722111
108.33028 1554.8807 745 4293525503
109.45872 1554.8807 745 4293918719
110.40734 1554.811 744 4293656575
111.7156 1554.8807 745 4293591039
112.84404 1554.8807 745 4293328895
113.97248 1554.8807 745 4293591039
115.10091 1554.8807 745 4293591039
116.22935 1554.8807 745 4293591039
117.3578 1554.8807 745 4293591039
118.6789 1554.9504 746 4293722111
119.80917 1554.9504 746 4293853183
120.93945 1554.9504 746 4293918719
122.06973 1554.9504 746 4293328895
-35.436699 1554.2954 753 4283178530
-34.293579 1554.2954 753 4282915876
-33.150459 1554.2954 753 4282849827
-31.955963 1554.2275 752 4282916105
-30.814678 1554.2275 752 4282981899
-29.673395 1554.2275 752 4282981385
-28.53211 1554.2275 752 4282915592
-27.346788 1554.1597 751 4282915584
-26.20734 1554.1597 751 4282783744
-25.06789 1554.1597 751 4282915079
-23.889908 1554.0918 750 4282915079
-22.715597 1554.0238 749 4282718981
-21.579817 1554.0238 749 4282784774
-20.411009 1553.9559 748 4282848532
-19.277063 1553.9559 748 4282848532
-18.172478 1554.0238 749 4282849284
-17.036697 1554.0238 749 4282849284
-15.875229 1553.9559 748 4282784774
102.68807 1553.7523 745 4293984255
103.64771 1553.6844 744 4294049791
104.77431 1553.6844 744 4294246399
105.90092 1553.6844 744 4293853183
107.02752 1553.6844 744 4293853183
108.15413 1553.6844 744 4294049791
109.10275 1553.6165 743 4294377471
110.22752 1553.6165 743 4293787647
111.53394 1553.6844 744 4293591039
112.66055 1553.6844 744 4293525503
113.78716 1553.6844 744 4293984255
115.10091 1553.7523 745 4293853183
116.22935 1553.7523 745 4294180863
117.3578 1553.7523 745 4293787647
118.6789 1553.8202 746 4293722111
119.80917 1553.8202 746 4293787647
120.93945 1553.8202 746 4294115327
-34.293579 1553.1523 753 4282785823
-33.150459 1553.1523 753 4282653981
-31.955963 1553.0862 752 4282719774
-30.814678 1553.0862 752 4282653981
-29.673395 1553.0862 752 4282915079
-28.486238 1553.0201 751 4283046408
-27.346788 1553.0201 751 4282915079
-26.165138 1552.9541 750 4283112457
-25.027523 1552.9541 750 4283046408
-23.851376 1552.8881 749 4282915079
-22.715597 1552.8881 749 4282914816
-21.579817 1552.8881 749 4282980608
-20.411009 1552.822 748 4282914581
-19.277063 1552.822 748 4282914581
-18.172478 1552.8881 749 4282783772
-17.009174 1552.822 748 4282783772
-15.875229 1552.822 748 4282784276
-14.741284 1552.822 748 4282784276
-13.629357 1552.8881 749 4282784276
100.10458 1552.4917 743 4294049791
101.22935 1552.4917 743 4293918719
102.35413 1552.4917 743 4294049791
103.4789 1552.4917 743 4294180863
104.60367 1552.4917 743 4294180863
105.72844 1552.4917 743 4293328895
106.85321 1552.4917 743 4293722111
107.97798 1552.4917 743 4294049791
109.10275 1552.4917 743 4293984255
110.22752 1552.4917 743 4293787647
111.35229 1552.4917 743 4293722111
112.66055 1552.5577 744 4293525503
113.78716 1552.5577 744 4293853183
114.91376 1552.5577 744 4293132287
116.04037 1552.5577 744 4293459967
117.16697 1552.5577 744 4293656575
118.48624 1552.6239 745 4293656575
-33.097248 1551.9449 752 4282982434
-31.955963 1551.9449 752 4283048227
-30.814678 1551.9449 752 4282784799
-29.673395 1551.9449 752 4282914581
-28.486238 1551.8807 751 4282848532
-27.302752 1551.8165 750 4282849284
-26.165138 1551.8165 750 4282783491
-25.027523 1551.8165 750 4282915079
-23.851376 1551.7523 749 4282915079
-22.715597 1551.7523 749 4282849280
-21.579817 1551.7523 749 4282849280
-20.411009 1551.6881 748 4282848532
-19.277063 1551.6881 748 4282914581
-18.14312 1551.6881 748 4283110948
-17.009174 1551.6881 748 4282848032
-15.875229 1551.6881 748 4282914581
-14.741284 1551.6881 748 4282914581
-13.60734 1551.6881 748 4282914581
-12.493578 1551.7523 749 4282848532
98.818352 1551.3027 742 4294311935
99.941284 1551.3027 742 4294311935
101.06422 1551.3027 742 4294246399
102.18716 1551.3027 742 4294246399
103.31009 1551.3027 742 4294311935
104.43303 1551.3027 742 4294311935
105.55596 1551.3027 742 4293984255
106.6789 1551.3027 742 4294443007
107.97798 1551.3669 743 4293984255
109.10275 1551.3669 743 4293722111
110.22752 1551.3669 743 4293722111
111.35229 1551.3669 743 4293787647
112.47707 1551.3669 743 4293787647
113.60184 1551.3669 743 4294377471
114.72661 1551.3669 743 4293918719
116.04037 1551.4312 744 4294115327
117.16697 1551.4312 744 4293853183
-30.814678 1550.8037 752 4282915633
-29.673395 1550.8037 752 4283111454
-28.53211 1550.8037 752 4282848282
-27.302752 1550.679 750 4282913555
-26.165138 1550.679 750 4282979604
-24.987156 1550.6165 749 4282848532
-23.851376 1550.6165 749 4282782739
-22.6789 1550.5541 748 4282914307
-21.544954 1550.5541 748 4282914307
-20.411009 1550.5541 748 4282848532
-19.277063 1550.5541 748 4282848532
-18.14312 1550.5541 748 4282914581
-17.009174 1550.5541 748 4282782739
-15.875229 1550.5541 748 4282913555
-14.741284 1550.5541 748 4282913555
-13.60734 1550.5541 748 4282848532
-12.433027 1550.4293 746 4282848532
-11.33945 1550.5541 748 4282849284
91.629356 1549.9927 739 4284713177
92.746788 1549.9927 739 4292345087
93.86422 1549.9927 739 4294639615
94.981651 1549.9927 739 4294246399
96.099083 1549.9927 739 4293787647
97.216515 1549.9927 739 4294049791
98.333946 1549.9927 739 4294115327
99.941284 1550.1798 742 4294115327
101.06422 1550.1798 742 4294311935
102.02018 1550.1174 741 4294311935
103.14128 1550.1174 741 4294049791
104.43303 1550.1798 742 4294115327
105.55596 1550.1798 742 4293722111
106.6789 1550.1798 742 4294115327
107.80183 1550.1798 742 4293853183
108.92477 1550.1798 742 4293656575
110.04771 1550.1798 742 4293722111
111.35229 1550.2422 743 4293787647
112.47707 1550.2422 743 4293722111
113.60184 1550.2422 743 4293918719
114.72661 1550.2422 743 4293591039
116.04037 1550.3046 744 4293591039
117.16697 1550.3046 744 4293132287
-30.86422 1549.7229 753 4283244866
-29.721102 1549.7229 753 4282981669
-28.53211 1549.6624 752 4282915876
-27.302752 1549.5413 750 4282850329
-26.165138 1549.5413 750 4282916378
-24.987156 1549.4807 749 4282717979
-23.851376 1549.4807 749 4282717979
-22.6789 1549.4202 748 4283045910
-21.544954 1549.4202 748 4283045910
-20.344954 1549.2991 746 4282914581
-19.21468 1549.2991 746 4282848532
-18.14312 1549.4202 748 4282848532
-16.954128 1549.2991 746 4282848532
-15.823853 1549.2991 746 4282914581
-14.693578 1549.2991 746 4282848532
-13.563303 1549.2991 746 4282848532
-12.433027 1549.2991 746 4282848532
-11.302752 1549.2991 746 4282849284
90.511925 1548.8752 739 4289051610
91.629356 1548.8752 739 4289252095
92.746788 1548.8752 739 4293656575
93.86422 1548.8752 739 4294705151
94.981651 1548.8752 739 4294311935
96.099083 1548.8752 739 4294049791
97.216515 1548.8752 739 4294115327
98.495415 1548.9358 740 4294115327
99.777985 1548.9963 741 4294246399
100.89909 1548.9963 741 4294246399
102.02018 1548.9963 741 4294246399
102.97248 1548.9358 740 4294115327
104.26238 1548.9963 741 4294180863
105.55596 1549.0569 742 4293787647
106.6789 1549.0569 742 4294115327
107.80183 1549.0569 742 4293984255
108.92477 1549.0569 742 4293722111
110.04771 1549.0569 742 4293918719
111.17064 1549.0569 742 4294443007
112.47707 1549.1174 743 4294049791
113.60184 1549.1174 743 4294049791
114.72661 1549.1174 743 4293984255
115.85138 1549.1174 743 4293984255
-29.625689 1548.4624 751 4283048227
-28.486238 1548.4624 751 4283114020
-27.258715 1548.345 749 4283114270
-26.165138 1548.4037 750 4283114270
-24.987156 1548.345 749 4282587676
-23.812843 1548.2863 748 4282521883
-22.6789 1548.2863 748 4282980382
-21.544954 1548.2863 748 4282980382
-20.344954 1548.1688 746 4282850079
-19.21468 1548.1688 746 4282850079
-18.084404 1548.1688 746 4283046681
-16.926605 1548.1101 745 4283046681
-15.823853 1548.1688 746 4283045910
-14.693578 1548.1688 746 4282914581
-13.563303 1548.1688 746 4282980887
-12.412844 1548.1101 745 4282980887
-11.302752 1548.1688 746 4283046408
-10.155963 1548.1101 745 4283112457
-9.027523 1548.1101 745 4282914581
88.277061 1547.7578 739 4284040796
89.394493 1547.7578 739 4283263124
90.511925 1547.7578 739 4291421439
91.629356 1547.7578 739 4291360255
92.746788 1547.7578 739 4293197823
93.86422 1547.7578 739 4294115327
94.981651 1547.7578 739 4294049791
96.099083 1547.7578 739 4293853183
97.216515 1547.7578 739 4293853183
98.333946 1547.7578 739 4293722111
99.614677 1547.8165 740 4293787647
100.56881 1547.7578 739 4293328895
101.85321 1547.8165 740 4293459967
102.80367 1547.7578 739 4293656575
104.09174 1547.8165 740 4293787647
105.21101 1547.8165 740 4293722111
106.33028 1547.8165 740 4294115327
107.80183 1547.934 742 4294115327
108.92477 1547.934 742 4293918719
110.04771 1547.934 742 4293918719
111.17064 1547.934 742 4294115327
112.47707 1547.9927 743 4293591039
113.60184 1547.9927 743 4293853183
114.53945 1547.934 742 4293984255
-29.577982 1547.2661 750 4283114770
-28.440367 1547.2661 750 4283180820
-27.258715 1547.2092 749 4283114770
-26.165138 1547.2661 750 4283312149
-24.987156 1547.2092 749 4283048477
-23.851376 1547.2092 749 4282785049
-22.715597 1547.2092 749 4282980899
-21.544954 1547.1523 748 4282915106
-20.411009 1547.1523 748 4282915106
-19.183487 1546.9817 745 4282915106
-18.055046 1546.9817 745 4283111454
-16.899082 1546.9248 744 4283045404
-15.798165 1546.9817 745 4283044884
-14.669724 1546.9817 745 4283044884
-13.541285 1546.9817 745 4283045910
-12.39266 1546.9248 744 4282914581
-11.266055 1546.9248 744 4282915079
-10.139449 1546.9248 744 4283178251
-8.9981651 1546.8679 743 4282848514
-7.8862386 1546.9248 744 4282848514
-6.7486238 1546.8679 743 4283110405
87.15963 1546.6404 739 4283189372
88.277061 1546.6404 739 4286742193
89.394493 1546.6404 739 4284385257
90.511925 1546.6404 739 4292345855
91.629356 1546.6404 739 4294967295
92.746788 1546.6404 739 4294901759
93.86422 1546.6404 739 4294049791
94.981651 1546.6404 739 4294180863
96.099083 1546.6404 739 4294377471
97.216515 1546.6404 739 4294377471
98.333946 1546.6404 739 4293984255
99.451378 1546.6404 739 4294180863
100.56881 1546.6404 739 4293787647
101.68624 1546.6404 739 4293984255
102.80367 1546.6404 739 4294049791
103.9211 1546.6404 739 4294115327
105.21101 1546.6973 740 4293918719
106.33028 1546.6973 740 4294311935
107.80183 1546.811 742 4294115327
108.74679 1546.7542 741 4293984255
110.04771 1546.811 742 4293918719
111.17064 1546.811 742 4294049791
112.29358 1546.811 742 4293984255
113.41651 1546.811 742 4293984255
114.53945 1546.811 742 4293853183
-28.348623 1546.0183 748 4283112474
-27.21468 1546.0183 748 4283178780
-26.122936 1546.0734 749 4283375902
-24.987156 1546.0734 749 4283244323
-23.812843 1546.0183 748 4283244323
-22.6789 1546.0183 748 4282981419
-21.544954 1546.0183 748 4282981419
-20.311926 1545.8533 745 4282915876
-19.152294 1545.7982 744 4282718240
-18.025688 1545.7982 744 4283045925
-16.899082 1545.7982 744 4282980132
-15.772477 1545.7982 744 4283176967
-14.645871 1545.7982 744 4283176967
-13.519266 1545.7982 744 4282980887
-12.39266 1545.7982 744 4282849045
-11.266055 1545.7982 744 4283047435
-10.139449 1545.7982 744 4283047435
-8.9981651 1545.7432 743 4282980887
-7.8733945 1545.7432 743 4282914838
-6.7486238 1545.7432 743 4283373065
-5.6238532 1545.7432 743 4283504651
84.645874 1545.4128 737 4283645255
85.900917 1545.4679 738 4284566357
87.01651 1545.4679 738 4284373117
88.132111 1545.4679 738 4289110469
89.247704 1545.4679 738 4288921855
90.363304 1545.4679 738 4293459967
91.478897 1545.4679 738 4294967295
92.594498 1545.4679 738 4294377471
93.710091 1545.4679 738 4293656575
94.981651 1545.5229 739 4293918719
96.099083 1545.5229 739 4293787647
97.216515 1545.5229 739 4293853183
98.333946 1545.5229 739 4293591039
99.451378 1545.5229 739 4293722111
100.56881 1545.5229 739 4293984255
101.68624 1545.5229 739 4294115327
102.80367 1545.5229 739 4294115327
103.9211 1545.5229 739 4293984255
105.03853 1545.5229 739 4293656575
106.15596 1545.5229 739 4293918719
107.62569 1545.6331 741 4294115327
108.74679 1545.6331 741 4294049791
109.86789 1545.6331 741 4293984255
111.17064 1545.6881 742 4294049791
-27.258715 1544.9376 749 4283112224
-26.122936 1544.9376 749 4283243553
-24.987156 1544.9376 749 4283178530
-23.812843 1544.8844 748 4283573288
-22.715597 1544.9376 749 4283311143
-21.544954 1544.8844 748 4282916385
-20.311926 1544.7247 745 4282981669
-19.152294 1544.6715 744 4282849827
-18.025688 1544.6715 744 4283045925
-16.899082 1544.6715 744 4282914338
-15.772477 1544.6715 744 4283110405
-14.622019 1544.6184 743 4283242247
-13.497248 1544.6184 743 4282980887
-12.372478 1544.6184 743 4282914838
-11.247706 1544.6184 743 4283046681
-10.122936 1544.6184 743 4283112474
-8.9981651 1544.6184 743 4283111974
-7.8733945 1544.6184 743 4283111974
-6.7376146 1544.5652 742 4283242008
-5.6146789 1544.5652 742 4283242008
-4.4917431 1544.5652 742 4282914075
-3.3633027 1544.512 741 4282848282
82.011009 1544.1394 734 4283311967
83.119263 1544.1394 734 4285746309
84.645874 1544.2991 737 4285816423
85.759636 1544.2991 737 4287000698
87.01651 1544.3523 738 4285103011
88.132111 1544.3523 738 4292142847
89.247704 1544.3523 738 4293458943
90.363304 1544.3523 738 4294705151
91.478897 1544.3523 738 4294639615
92.594498 1544.3523 738 4294377471
93.710091 1544.3523 738 4293787647
94.825691 1544.3523 738 4293984255
95.941284 1544.3523 738 4293984255
97.056877 1544.3523 738 4294246399
98.172478 1544.3523 738 4293853183
99.288071 1544.3523 738 4293853183
100.40367 1544.3523 738 4294115327
101.51926 1544.3523 738 4294115327
102.63486 1544.3523 738 4293984255
103.75046 1544.3523 738 4293984255
104.86606 1544.3523 738 4293787647
106.15596 1544.4055 739 4293787647
107.44954 1544.4587 740 4294049791
108.56881 1544.4587 740 4294377471
109.68807 1544.4587 740 4294049791
110.80734 1544.4587 740 4293984255
-27.346788 1543.9045 751 4283046681
-26.20734 1543.9045 751 4283112474
-25.027523 1543.8533 750 4282981921
-23.812843 1543.7505 748 4283244836
-22.6789 1543.7505 748 4282917673
-21.544954 1543.7505 748 4282785830
-20.411009 1543.7505 748 4282981921
-19.152294 1543.5449 744 4282981921
-18.025688 1543.5449 744 4283045675
-16.899082 1543.5449 744 4283045675
-15.746789 1543.4935 743 4283046408
-14.622019 1543.4935 743 4283112457
-13.497248 1543.4935 743 4282980382
-12.372478 1543.4935 743 4283046431
-11.247706 1543.4935 743 4283046681
-10.122936 1543.4935 743 4283046681
-8.9981651 1543.4935 743 4283111454
-7.8605504 1543.4423 742 4283111454
-6.7376146 1543.4423 742 4283046681
-5.6055045 1543.3909 741 4283046681
-4.4844036 1543.3909 741 4283046681
-3.3577981 1543.3395 740 4283112474
-2.2385321 1543.3395 740 4283112474
-1.119266 1543.3395 740 4283046681
1.1155963 1543.2367 738 4283112705
3.3467889 1543.2367 738 4282720026
4.4697247 1543.2881 739 4282850329
5.5871558 1543.2881 739 4282916378
6.704587 1543.2881 739 4283113228
80.902756 1543.0312 734 4283446104
82.011009 1543.0312 734 4283840599
83.119263 1543.0312 734 4285945974
84.227524 1543.0312 734 4286276209
85.759636 1543.1853 737 4287526020
86.873398 1543.1853 737 4286353107
87.98716 1543.1853 737 4293195775
89.247704 1543.2367 738 4293263359
90.363304 1543.2367 738 4293722111
91.478897 1543.2367 738 4294377471
92.594498 1543.2367 738 4294049791
93.710091 1543.2367 738 4293525503
94.825691 1543.2367 738 4293656575
95.941284 1543.2367 738 4293787647
97.056877 1543.2367 738 4293984255
98.172478 1543.2367 738 4293918719
99.288071 1543.2367 738 4294049791
100.40367 1543.2367 738 4294311935
101.51926 1543.2367 738 4294115327
102.63486 1543.2367 738 4293591039
103.75046 1543.2367 738 4293656575
104.86606 1543.2367 738 4293853183
105.98165 1543.2367 738 4293853183
107.27339 1543.2881 739 4293787647
108.21284 1543.2367 738 4294115327
109.32844 1543.2367 738 4294180863
-23.812843 1542.6165 748 4282982171
-21.544954 1542.6165 748 4283113250
-20.311926 1542.4679 745 4283048227
-19.152294 1542.4183 744 4283179814
-18.025688 1542.4183 744 4283311161
-16.871559 1542.3688 743 4283047989
-15.746789 1542.3688 743 4283179280
-14.622019 1542.3688 743 4283113487
-13.497248 1542.3688 743 4282981921
-12.372478 1542.3688 743 4282850079
-11.229358 1542.3192 742 4282850329
-10.106422 1542.3192 742 4282784535
-8.9834862 1542.3192 742 4282914581
-7.8605504 1542.3192 742 4282914581
-6.7376146 1542.3192 742 4282980887
-5.6055045 1542.2698 741 4282914838
-4.4844036 1542.2698 741 4283045910
-3.3577981 1542.2202 740 4283243290
-2.2385321 1542.2202 740 4283047435
-1.119266 1542.2202 740 4282981385
0 1542.1707 739 4282850048
1.1155963 1542.1211 738 4283112960
2.2311926 1542.1211 738 4282851083
3.3467889 1542.1211 738 4282916876
4.4623852 1542.1211 738 4282851083
5.5871558 1542.1707 739 4282851083
6.704587 1542.1707 739 4282916876
77.57798 1541.923 734 4286145652
78.555962 1541.8734 733 4282461244
79.794495 1541.923 734 4283313501
80.768806 1541.8734 733 4286142600
82.011009 1541.923 734 4286735727
83.119263 1541.923 734 4287262071
84.506424 1542.022 736 4285164668
85.759636 1542.0715 737 4290757073
86.873398 1542.0715 737 4291222271
87.98716 1542.0715 737 4294508543
89.100914 1542.0715 737 4294967295
90.214676 1542.0715 737 4294574079
91.328438 1542.0715 737 4294049791
92.4422 1542.0715 737 4293918719
93.555962 1542.0715 737 4293722111
94.669724 1542.0715 737 4294246399
95.941284 1542.1211 738 4293984255
97.056877 1542.1211 738 4294115327
98.011009 1542.0715 737 4294311935
99.124771 1542.0715 737 4294574079
100.40367 1542.1211 738 4294246399
101.51926 1542.1211 738 4294115327
102.63486 1542.1211 738 4293853183
103.57982 1542.0715 737 4293918719
104.69358 1542.0715 737 4294115327
105.98165 1542.1211 738 4294443007
107.27339 1542.1707 739 4293984255
108.21284 1542.1211 738 4293984255
-20.278898 1541.2917 744 4282982947
-19.152294 1541.2917 744 4283180327
-17.99633 1541.244 743 4283246131
-16.871559 1541.244 743 4283180338
-15.746789 1541.244 743 4283180064
-14.622019 1541.244 743 4283180064
-13.497248 1541.244 743 4282982445
-12.352294 1541.1963 742 4282850860
-11.229358 1541.1963 742 4282785823
-10.106422 1541.1963 742 4282719774
-8.9834862 1541.1963 742 4282784797
-7.8477063 1541.1487 741 4282784797
-6.7266054 1541.1487 741 4283047435
-5.5963302 1541.101 740 4282915592
-4.4770641 1541.101 740 4283176967
-3.3577981 1541.101 740 4283440140
-2.2348623 1541.0532 739 4283113228
-1.119266 1541.101 740 4283047435
0 1541.0532 739 4283112705
1.1137614 1540.9578 737 4283178498
2.2275229 1540.9578 737 4282982171
3.3412845 1540.9578 737 4282982171
4.4550457 1540.9578 737 4282916876
5.5779815 1541.0055 738 4282982669
6.682569 1540.9578 737 4282851083
7.8091745 1541.0055 738 4282916876
8.9688072 1541.1487 741 4283047684
10.089909 1541.1487 741 4283047684
75.361465 1540.8147 734 4287199891
76.343117 1540.767 733 4286015361
77.449539 1540.767 733 4282729572
78.555962 1540.767 733 4282597986
79.662384 1540.767 733 4284434507
80.768806 1540.767 733 4286342504
82.011009 1540.8147 734 4286997377
83.119263 1540.8147 734 4287918479
84.227524 1540.8147 734 4284644529
85.618347 1540.91 736 4291486719
86.730278 1540.91 736 4292410367
87.842201 1540.91 736 4293853183
88.954132 1540.91 736 4294443007
90.066055 1540.91 736 4294180863
91.177979 1540.91 736 4293656575
92.289909 1540.91 736 4293787647
93.093575 1540.8147 734 4293787647
94.513763 1540.91 736 4294246399
95.625687 1540.91 736 4293853183
96.737617 1540.91 736 4293984255
97.849541 1540.91 736 4294574079
99.124771 1540.9578 737 4294770687
100.23853 1540.9578 737 4294377471
101.35229 1540.9578 737 4294115327
102.46606 1540.9578 737 4293918719
103.57982 1540.9578 737 4293984255
104.5211 1540.91 736 4293984255
105.2844 1540.8147 734 4294180863
106.39266 1540.8147 734 4293656575
-19.121101 1540.1193 743 4283048740
-17.99633 1540.1193 743 4283048227
-16.871559 1540.1193 743 4283048227
-15.746789 1540.1193 743 4283180064
-14.622019 1540.1193 743 4283377442
-13.497248 1540.1193 743 4283245631
-12.372478 1540.1193 743 4282982460
-11.229358 1540.0734 742 4282721313
-10.106422 1540.0734 742 4282655264
-8.9834862 1540.0734 742 4282719774
-7.8477063 1540.0275 741 4282653981
-6.7266054 1540.0275 741 4282850329
-5.5963302 1539.9817 740 4282718742
-4.4770641 1539.9817 740 4282980608
-3.3577981 1539.9817 740 4283177985
-2.2348623 1539.9358 739 4282916378
-1.1174312 1539.9358 739 4282850329
0 1539.9358 739 4283047435
1.1155963 1539.8899 738 4283113228
2.2275229 1539.844 737 4282982171
3.3412845 1539.844 737 4282850329
4.4550457 1539.844 737 4282850329
5.5688071 1539.844 737 4282916378
6.6715598 1539.7982 736 4282916378
7.7834864 1539.7982 736 4282916378
8.9247704 1539.8899 738 4283047435
10.040367 1539.8899 738 4283047435
75.361465 1539.7064 734 4282529620
76.343117 1539.6605 733 4283121500
77.449539 1539.6605 733 4284896355
78.555962 1539.6605 733 4286672510
79.662384 1539.6605 733 4286999135
80.768806 1539.6605 733 4287130721
82.011009 1539.7064 734 4285555591
83.119263 1539.7064 734 4289437635
84.227524 1539.7064 734 4289446655
85.335777 1539.7064 734 4294115327
86.444038 1539.7064 734 4294967295
87.552292 1539.7064 734 4294377471
88.660553 1539.7064 734 4294115327
89.768806 1539.7064 734 4294115327
90.877068 1539.7064 734 4293918719
91.985321 1539.7064 734 4294377471
93.093575 1539.7064 734 4294115327
94.201836 1539.7064 734 4294508543
95.625687 1539.7982 736 4294311935
96.737617 1539.7982 736 4294115327
97.849541 1539.7982 736 4294115327
98.961472 1539.7982 736 4294377471
100.23853 1539.844 737 4294246399
101.35229 1539.844 737 4294180863
102.46606 1539.844 737 4293722111
103.40917 1539.7982 736 4293984255
104.17615 1539.7064 734 4294377471
105.2844 1539.7064 734 4294508543
-19.121101 1538.9945 743 4282982945
-17.99633 1538.9945 743 4282851362
-16.871559 1538.9945 743 4282785569
-15.746789 1538.9945 743 4282982434
-14.622019 1538.9945 743 4283114020
-13.497248 1538.9945 743 4282787370
-12.372478 1538.9945 743 4282787370
-11.229358 1538.9504 742 4282721059
-10.106422 1538.9504 742 4282721059
-8.9688072 1538.9064 741 4282982947
-7.8477063 1538.9064 741 4282982947
-6.7155962 1538.8624 740 4282785819
-5.5963302 1538.8624 740 4282785819
-4.4770641 1538.8624 740 4282982182
-3.3522935 1538.8184 739 4282916389
-2.2348623 1538.8184 739 4282982171
-1.1174312 1538.8184 739 4282850329
0 1538.8184 739 4283047435
1.1137614 1538.7302 737 4283244557
2.2275229 1538.7302 737 4283112224
3.3412845 1538.7302 737 4283046431
4.4477062 1538.6863 736 4282784789
5.5596333 1538.6863 736 4282850583
6.6715598 1538.6863 736 4282850329
7.7577982 1538.5981 734 4282850329
8.8660555 1538.5981 734 4283047435
10.007339 1538.6863 736 4283047435
11.119267 1538.6863 736 4283046681
12.190825 1538.5981 734 4283112474
13.299083 1538.5981 734 4282916378
14.407339 1538.5981 734 4282850329
17.702753 1538.5541 733 4282981669
70.811012 1538.5541 733 4288049565
71.917435 1538.5541 733 4287917979
73.023849 1538.5541 733 4285621386
74.253212 1538.5981 734 4282529116
75.236694 1538.5541 733 4281411146
76.343117 1538.5541 733 4283319143
77.449539 1538.5541 733 4286273379
78.555962 1538.5541 733 4287786618
79.662384 1538.5541 733 4287064930
80.768806 1538.5541 733 4287459432
81.875229 1538.5541 733 4284706990
82.981651 1538.5541 733 4290496511
84.088074 1538.5541 733 4292144895
85.194496 1538.5541 733 4294115327
86.300919 1538.5541 733 4294377471
87.552292 1538.5981 734 4293984255
88.660553 1538.5981 734 4294115327
89.768806 1538.5981 734 4294049791
90.877068 1538.5981 734 4293263359
91.985321 1538.5981 734 4293722111
93.093575 1538.5981 734 4293722111
94.201836 1538.5981 734 4294049791
95.310089 1538.5981 734 4294377471
96.41835 1538.5981 734 4294246399
97.526604 1538.5981 734 4293722111
98.634865 1538.5981 734 4294115327
99.743118 1538.5981 734 4294377471
100.85138 1538.5981 734 4294115327
101.95963 1538.5981 734 4293001215
103.06789 1538.5981 734 4293591039
104.17615 1538.5981 734 4294246399
-19.089909 1537.8275 742 4282720026
-17.966972 1537.8275 742 4282915872
-16.871559 1537.8698 743 4282850079
-15.721101 1537.8275 742 4282915872
-14.598166 1537.8275 742 4282915872
-13.497248 1537.8698 743 4282916609
-12.372478 1537.8698 743 4283113989
-11.247706 1537.8698 743 4282982171
-10.106422 1537.8275 742 4283179293
-8.9834862 1537.8275 742 4283048477
-7.8477063 1537.7853 741 4283048477
-6.7155962 1537.7432 740 4282982434
-5.5963302 1537.7432 740 4283114020
-4.4770641 1537.7432 740 4283245118
-3.3522935 1537.7009 739 4283047483
-2.2348623 1537.7009 739 4282851362
-1.1174312 1537.7009 739 4282785569
0 1537.6587 738 4282785280
1.1137614 1537.6165 737 4283113989
2.2275229 1537.6165 737 4282915872
3.3357799 1537.5743 736 4282915872
4.4477062 1537.5743 736 4282587924
5.5596333 1537.5743 736 4282785303
6.6495414 1537.4899 734 4282784797
7.7577982 1537.4899 734 4282653467
8.8660555 1537.4899 734 4282718981
9.9743118 1537.4899 734 4282784774
11.082569 1537.4899 734 4283045910
12.190825 1537.4899 734 4283045910
13.299083 1537.4899 734 4282981385
14.407339 1537.4899 734 4282981385
15.515596 1537.4899 734 4282916378
16.623854 1537.4899 734 4282916378
17.702753 1537.4478 733 4283046431
18.809174 1537.4478 733 4283112224
19.882568 1537.4055 732 4283112987
69.473396 1537.3633 731 4284830380
70.693581 1537.4055 732 4281996654
71.678902 1537.3633 731 4281141346
72.902756 1537.4055 732 4283447582
74.007339 1537.4055 732 4285421373
75.236694 1537.4478 733 4286145906
76.216515 1537.4055 732 4286935166
77.321098 1537.4055 732 4287525729
78.42569 1537.4055 732 4286802262
79.662384 1537.4478 733 4285096544
80.768806 1537.4478 733 4288978587
81.875229 1537.4478 733 4289708543
82.981651 1537.4478 733 4294639615
84.088074 1537.4478 733 4294967295
85.194496 1537.4478 733 4294967295
86.300919 1537.4478 733 4294377471
87.407341 1537.4478 733 4294311935
88.660553 1537.4899 734 4294115327
89.768806 1537.4899 734 4294115327
90.877068 1537.4899 734 4294115327
91.985321 1537.4899 734 4294639615
93.093575 1537.4899 734 4294311935
94.201836 1537.4899 734 4294049791
95.310089 1537.4899 734 4294246399
96.41835 1537.4899 734 4294246399
97.526604 1537.4899 734 4293722111
98.634865 1537.4899 734 4294049791
99.743118 1537.4899 734 4294377471
100.6844 1537.4478 733 4293984255
101.79082 1537.4478 733 4293525503
102.89725 1537.4478 733 4294311935
-17.966972 1536.7046 742 4282784789
-16.844036 1536.7046 742 4282850583
-16.234863 1537.512 762 4282980895
-15.07523 1537.512 762 4282980895
-13.497248 1536.745 743 4282851083
-12.372478 1536.745 743 4282916876
-11.247706 1536.745 743 4283112474
-10.106422 1536.7046 742 4283243803
-8.9834862 1536.7046 742 4283178280
-7.8477063 1536.6642 741 4283112487
-6.7155962 1536.6239 740 4282982171
-5.5963302 1536.6239 740 4283179293
-4.4770641 1536.6239 740 4283178291
-3.3522935 1536.5835 739 4283244085
-2.2348623 1536.5835 739 4282982434
-1.1174312 1536.5835 739 4282916385
0 1536.5431 738 4282720026
1.1137614 1536.5028 737 4282785819
2.2275229 1536.5028 737 4282720305
3.3357799 1536.4624 736 4282588719
4.4477062 1536.4624 736 4282720026
5.5412846 1536.3816 734 4282720026
6.6495414 1536.3816 734 4282785819
7.7577982 1536.3816 734 4282785819
8.8660555 1536.3816 734 4282523680
9.9743118 1536.3816 734 4282260508
11.082569 1536.3816 734 4282980887
12.190825 1536.3816 734 4283046681
13.299083 1536.3816 734 4283308555
14.407339 1536.3816 734 4283440142
15.515596 1536.3816 734 4283112474
16.623854 1536.3816 734 4283112474
17.702753 1536.3413 733 4283046681
18.777981 1536.3009 732 4283309596
19.882568 1536.3009 732 4283112987
20.952293 1536.2605 731 4283047194
22.018349 1536.2202 730 4282916378
23.157799 1536.2605 731 4282982171
53.855045 1536.1798 729 4282716696
54.954128 1536.1798 729 4282451461
56.053211 1536.1798 729 4281663488
57.152294 1536.1798 729 4281597969
58.154129 1536.1394 728 4282187802
67.15596 1536.2202 730 4288713383
68.370644 1536.2605 731 4284182431
69.473396 1536.2605 731 4282340227
70.693581 1536.3009 732 4280885837
71.678902 1536.2605 731 4280885837
72.902756 1536.3009 732 4284826673
74.007339 1536.3009 732 4286405449
75.111923 1536.3009 732 4286865766
76.216515 1536.3009 732 4288181626
77.321098 1536.3009 732 4287197552
78.42569 1536.3009 732 4286999916
79.530273 1536.3009 732 4284248989
80.634865 1536.3009 732 4289512430
81.739449 1536.3009 732 4291815679
82.981651 1536.3413 733 4294311935
84.088074 1536.3413 733 4294705151
85.194496 1536.3413 733 4294311935
86.300919 1536.3413 733 4294049791
87.407341 1536.3413 733 4294049791
88.513763 1536.3413 733 4293722111
89.768806 1536.3816 734 4293984255
90.877068 1536.3816 734 4294311935
91.985321 1536.3816 734 4294508543
93.093575 1536.3816 734 4294246399
94.201836 1536.3816 734 4294115327
95.310089 1536.3816 734 4293984255
96.41835 1536.3816 734 4293984255
97.526604 1536.3816 734 4293656575
98.634865 1536.3816 734 4293722111
99.743118 1536.3816 734 4293656575
100.6844 1536.3413 733 4293722111
101.79082 1536.3413 733 4293787647
-17.394495 1536.3523 762 4282782993
-16.234863 1536.3523 762 4282782752
-15.07523 1536.3523 762 4283045925
-13.915596 1536.3523 762 4282653467
-12.755963 1536.3523 762 4282784797
-11.577982 1536.3137 761 4282849827
-10.106422 1535.5817 742 4282849827
-8.9834862 1535.5817 742 4282981419
-7.8477063 1535.5431 741 4282981419
-6.7155962 1535.5046 740 4282916105
-5.5963302 1535.5046 740 4283113741
-4.4697247 1535.4661 739 4282915872
-3.3522935 1535.4661 739 4282981921
-2.2348623 1535.4661 739 4282785569
-1.1155963 1535.4275 738 4282719776
0 1535.4275 738 4282719774
1.1119266 1535.3505 736 4282982945
2.2238531 1535.3505 736 4282982714
3.3247707 1535.2734 734 4282850871
4.4330277 1535.2734 734 4282851362
5.5412846 1535.2734 734 4282851362
6.6495414 1535.2734 734 4282851362
7.7577982 1535.2734 734 4282851362
8.8513765 1535.2349 733 4282851887
