# .PCD v0.7 - Point Cloud Data file format
VERSION 0.7
FIELDS x y z rgb
SIZE 4 4 4 4
TYPE F F F U
COUNT 1 1 1 1
WIDTH 1367
HEIGHT 1
VIEWPOINT 0 0 0 1 0 0 0
POINTS 1367
DATA ascii
-25.592661 1577.1449 764 4286352021
-24.352293 1576.9395 762 4284115059
-23.192661 1576.9395 762 4283651960
-22.033028 1576.9395 762 4280822861
130.62386 1576.7339 760 4289720575
131.989 1576.8367 761 4289458431
133.14679 1576.8367 761 4289656063
134.30458 1576.8367 761 4289129983
135.67706 1576.9395 762 4289195775
136.8367 1576.9395 762 4289457919
138.43303 1577.1449 764 4289786879
139.59633 1577.1449 764 4289131007
140.75963 1577.1449 764 4289459711
141.92294 1577.1449 764 4289983743
143.08624 1577.1449 764 4289655039
144.47707 1577.2477 765 4289654783
145.6422 1577.2477 765 4289720575
146.80734 1577.2477 765 4289064191
147.97247 1577.2477 765 4289393151
-36.176147 1576.1835 766 4281212445
-34.954128 1576.0825 765 4281277988
-33.78899 1576.0825 765 4280620058
-32.623852 1576.0825 765 4278322688
-31.458715 1576.0825 765 4281546540
-30.245872 1575.9817 764 4284440919
-29.082569 1575.9817 764 4284769884
-27.919266 1575.9817 764 4283719763
-26.67156 1575.7798 762 4282206267
-25.511927 1575.7798 762 4281093976
-24.352293 1575.7798 762 4280830803
-23.192661 1575.7798 762 4284046727
-21.998165 1575.679 761 4283257467
129.4679 1575.578 760 4289850879
130.62386 1575.578 760 4289850879
131.77982 1575.578 760 4289523711
133.14679 1575.679 761 4289852671
134.30458 1575.679 761 4289852415
135.46239 1575.679 761 4289852415
136.62018 1575.679 761 4289917183
137.99634 1575.7798 762 4290049023
139.15596 1575.7798 762 4289655295
140.3156 1575.7798 762 4289721087
141.47523 1575.7798 762 4289983231
143.08624 1575.9817 764 4289851647
144.47707 1576.0825 765 4289654783
145.41284 1575.9817 764 4290181119
146.57614 1575.9817 764 4289851391
147.73946 1575.9817 764 4289917183
-36.176147 1575.0165 766 4280949007
-35.009174 1575.0165 766 4281932324
-33.78899 1574.9175 765 4281339931
-32.623852 1574.9175 765 4278390273
-31.458715 1574.9175 765 4283587920
-30.245872 1574.8184 764 4284771962
-28.990826 1574.6202 762 4285627015
-27.831192 1574.6202 762 4285691266
-26.67156 1574.6202 762 4285099128
-25.511927 1574.6202 762 4283328637
-24.313761 1574.5211 761 4283394686
-23.155964 1574.5211 761 4284707223
-21.963303 1574.422 760 4282009710
-20.807339 1574.422 760 4281147685
128.31192 1574.422 760 4289720575
129.4679 1574.422 760 4289719039
130.62386 1574.422 760 4289719039
131.77982 1574.422 760 4289063423
132.93578 1574.422 760 4289589759
134.09174 1574.422 760 4289656063
135.46239 1574.5211 761 4289656063
136.62018 1574.5211 761 4289458431
137.77798 1574.5211 761 4289590015
138.93578 1574.5211 761 4289720575
140.3156 1574.6202 762 4289786367
141.47523 1574.6202 762 4289983231
143.08624 1574.8184 764 4289785855
144.24954 1574.8184 764 4288604671
145.41284 1574.8184 764 4289196799
146.57614 1574.8184 764 4289720575
-36.176147 1573.8495 766 4281015304
-35.009174 1573.8495 766 4281800732
-33.78899 1573.7523 765 4281011472
-32.572475 1573.655 764 4278916369
-31.310091 1573.4606 762 4284640361
-30.150459 1573.4606 762 4286481533
-28.990826 1573.4606 762 4286876035
-27.787155 1573.3633 761 4286614178
-26.629358 1573.3633 761 4287272108
-25.47156 1573.3633 761 4286286228
-24.275229 1573.2661 760 4285496712
-23.082569 1573.1688 759 4285757081
-21.92844 1573.1688 759 4282204516
-20.774311 1573.1688 759 4279503389
127.15596 1573.2661 760 4289588735
128.31192 1573.2661 760 4289720575
129.4679 1573.2661 760 4289983231
130.41652 1573.1688 759 4290049023
131.57065 1573.1688 759 4289523711
132.93578 1573.2661 760 4289523711
134.09174 1573.2661 760 4289524479
135.24771 1573.2661 760 4289919231
136.40367 1573.2661 760 4289655295
137.55963 1573.2661 760 4289655295
138.93578 1573.3633 761 4289917183
140.09358 1573.3633 761 4290114815
141.25137 1573.3633 761 4290442751
142.63486 1573.4606 762 4290508543
144.24954 1573.655 764 4290049023
145.41284 1573.655 764 4290049023
146.57614 1573.655 764 4289983231
-36.176147 1572.6826 766 4280950290
-35.009174 1572.6826 766 4281146652
-33.842201 1572.6826 766 4279896841
-32.623852 1572.5872 765 4278982163
-31.409174 1572.4917 764 4286482565
-30.150459 1572.3009 762 4285762231
-28.944954 1572.2056 761 4284577700
-27.787155 1572.2056 761 4283396492
-26.587156 1572.1101 760 4284778145
-25.431192 1572.1101 760 4285761951
-24.236698 1572.0146 759 4285103764
-23.045872 1571.9193 758 4286018441
-21.893578 1571.9193 758 4279439141
-20.741285 1571.9193 758 4280352772
-19.588991 1571.9193 758 4281666584
128.31192 1572.1101 760 4289720831
129.26239 1572.0146 759 4289852415
130.41652 1572.0146 759 4289786623
131.57065 1572.0146 759 4289458431
132.72478 1572.0146 759 4289458431
133.87891 1572.0146 759 4289261823
135.03302 1572.0146 759 4289393407
136.18715 1572.0146 759 4289720575
137.34128 1572.0146 759 4289852159
138.71559 1572.1101 760 4290376191
139.87157 1572.1101 760 4290507775
141.02753 1572.1101 760 4290245375
142.40918 1572.2056 761 4290376703
143.79449 1572.3009 762 4290115071
144.95413 1572.3009 762 4290049279
146.11375 1572.3009 762 4289458431
-34.78899 1571.1412 762 4281014552
-32.469727 1571.1412 762 4280225813
-31.310091 1571.1412 762 4289305503
-30.102753 1571.0477 761 4288979140
-28.944954 1571.0477 761 4286150040
-27.74312 1570.9541 760 4284118653
-26.587156 1570.9541 760 4284250495
-25.390825 1570.8606 759 4285102472
-24.198166 1570.767 758 4283588976
-23.045872 1570.767 758 4283782476
-21.893578 1570.767 758 4278190080
-20.708258 1570.6733 757 4278714394
-19.557798 1570.6733 757 4279963436
-18.407339 1570.6733 757 4280487445
127.90459 1570.767 758 4289983231
129.05688 1570.767 758 4289720575
130.20917 1570.767 758 4289720575
131.57065 1570.8606 759 4289983231
132.51376 1570.767 758 4290114815
133.87891 1570.8606 759 4289523711
135.03302 1570.8606 759 4289523711
136.18715 1570.8606 759 4289917183
137.34128 1570.8606 759 4290114815
138.49541 1570.8606 759 4289916671
139.64954 1570.8606 759 4289982719
141.02753 1570.9541 760 4289982719
142.18349 1570.9541 760 4290114047
143.56697 1571.0477 761 4290049279
144.72478 1571.0477 761 4290115071
-32.41835 1569.8899 761 4278198285
-31.26055 1569.8899 761 4286492572
-30.102753 1569.8899 761 4287931099
-28.899082 1569.7982 760 4284904364
-27.74312 1569.7982 760 4284512118
-26.544954 1569.7064 759 4284314739
-25.350458 1569.6146 758 4284969071
-24.198166 1569.6146 758 4283719261
-23.009174 1569.5229 757 4282860879
-21.858715 1569.5229 757 4278190088
-20.708258 1569.5229 757 4280352772
-19.557798 1569.5229 757 4281206033
-18.407339 1569.5229 757 4280551964
-17.201836 1569.3395 755 4280617757
127.70092 1569.5229 757 4289852415
128.85138 1569.5229 757 4289392127
130.00183 1569.5229 757 4289786623
131.36147 1569.6146 758 4290376703
132.51376 1569.6146 758 4290376703
133.66606 1569.6146 758 4289523711
134.81834 1569.6146 758 4289721087
135.97064 1569.6146 758 4289983231
137.12294 1569.6146 758 4290049023
138.27522 1569.6146 758 4289851391
139.42752 1569.6146 758 4289983231
140.57982 1569.6146 758 4289917183
141.95779 1569.7064 759 4290049023
143.11192 1569.7064 759 4290115071
-32.41835 1568.7321 761 4278200846
-31.26055 1568.7321 761 4287346586
-30.055046 1568.6422 760 4286684586
-28.899082 1568.6422 760 4278723633
-27.699083 1568.5522 759 4278733661
-26.502752 1568.4624 758 4279983985
-25.350458 1568.4624 758 4283852362
-24.159634 1568.3724 757 4284378706
-23.009174 1568.3724 757 4284900448
-21.858715 1568.3724 757 4282861122
-20.642202 1568.1926 755 4282394880
-19.495413 1568.1926 755 4280289792
-18.348623 1568.1926 755 4280420896
-17.174313 1568.1028 754 4280552482
-16.029358 1568.1028 754 4280421900
-14.884403 1568.1028 754 4280553486
126.14679 1568.1926 755 4289852927
127.29358 1568.1926 755 4289787135
128.44037 1568.1926 755 4289983231
130.00183 1568.3724 757 4290114815
131.1523 1568.3724 757 4290049279
132.30275 1568.3724 757 4290115071
133.45322 1568.3724 757 4290115071
134.60367 1568.3724 757 4290115071
135.75414 1568.3724 757 4290115071
136.90459 1568.3724 757 4290312191
138.05504 1568.3724 757 4290115071
139.20551 1568.3724 757 4290377983
140.35596 1568.3724 757 4290115071
141.50642 1568.3724 757 4290312191
-30.055046 1567.4862 760 4285636521
-28.85321 1567.3982 759 4281688940
-27.655046 1567.3101 758 4282870389
-26.502752 1567.3101 758 4283923077
-25.310091 1567.222 757 4284641917
-24.159634 1567.222 757 4284181366
-22.93578 1567.0459 755 4285954405
-21.78899 1567.0459 755 4285954405
-20.609175 1566.9578 754 4282927749
-19.46422 1566.9578 754 4278782790
-18.348623 1567.0459 755 4280025107
-17.174313 1566.9578 754 4280814622
-16.00367 1566.8698 753 4281075478
-14.860551 1566.8698 753 4281075478
-13.695413 1566.7816 752 4280487445
123.45688 1566.8698 753 4289195263
125.94495 1566.9578 754 4290115583
127.0899 1566.9578 754 4290049791
128.44037 1567.0459 755 4290115071
129.58716 1567.0459 755 4290115071
130.73395 1567.0459 755 4289983743
131.88074 1567.0459 755 4290049791
133.02753 1567.0459 755 4290115583
134.17432 1567.0459 755 4290049791
135.32111 1567.0459 755 4289328127
136.4679 1567.0459 755 4289525759
137.61469 1567.0459 755 4289524479
139.20551 1567.222 757 4289524479
139.90826 1567.0459 755 4289262335
141.05504 1567.0459 755 4289591551
-30.007339 1566.244 759 4287799465
-28.807339 1566.1578 758 4287470757
-27.655046 1566.1578 758 4287471799
-26.46055 1566.0715 757 4287734971
-25.310091 1566.0715 757 4285496224
-24.082569 1565.899 755 4279509061
-22.899082 1565.8129 754 4282663781
-21.754128 1565.8129 754 4286611362
-20.609175 1565.8129 754 4287592599
-19.46422 1565.8129 754 4280223783
-18.319265 1565.8129 754 4279173125
-17.14679 1565.7266 753 4280551962
-16.00367 1565.7266 753 4281141271
-14.860551 1565.7266 753 4281273113
-13.695413 1565.6404 752 4281076230
124.6 1565.7266 753 4290179839
125.74312 1565.7266 753 4290376703
126.88624 1565.7266 753 4290442751
128.02936 1565.7266 753 4290049279
129.17247 1565.7266 753 4289983231
130.3156 1565.7266 753 4290049023
131.45871 1565.7266 753 4290049023
132.81468 1565.8129 754 4290049791
133.95964 1565.8129 754 4290115583
135.10458 1565.8129 754 4289524991
136.4679 1565.899 755 4289854207
137.61469 1565.899 755 4290049791
138.76147 1565.899 755 4289720831
139.90826 1565.899 755 4289721087
141.05504 1565.899 755 4290115839
-28.807339 1565.0055 758 4288389278
-27.61101 1564.9211 757 4288980675
-26.46055 1564.9211 757 4288388538
-25.310091 1564.9211 757 4285365392
-24.082569 1564.7523 755 4278786092
-22.899082 1564.6678 754 4281147978
-21.754128 1564.6678 754 4286806176
-20.576147 1564.5835 753 4287921841
-19.433027 1564.5835 753 4280421439
-18.289907 1564.5835 753 4279173125
-17.14679 1564.5835 753 4280618011
-15.977982 1564.499 752 4280685071
-14.836698 1564.499 752 4280487693
-13.673394 1564.4147 751 4281010944
123.45688 1564.5835 753 4290180095
124.4 1564.499 752 4290245887
125.54128 1564.499 752 4290245375
126.68257 1564.499 752 4290245375
127.82385 1564.499 752 4289655295
128.96513 1564.499 752 4289852671
130.10641 1564.499 752 4290245887
131.45871 1564.5835 753 4290180095
132.60184 1564.5835 753 4289852415
133.74495 1564.5835 753 4289852415
135.10458 1564.6678 754 4289197311
136.24954 1564.6678 754 4289657855
137.3945 1564.6678 754 4290443519
138.53944 1564.6678 754 4290311935
139.6844 1564.6678 754 4290049279
-27.522936 1563.6055 755 4286483371
-26.376146 1563.6055 755 4285957027
-25.229359 1563.6055 755 4284049239
-24.044037 1563.5229 754 4278190080
-22.862385 1563.4404 753 4278192511
-21.719267 1563.4404 753 4282340811
-20.543119 1563.3578 752 4284110431
-19.401834 1563.3578 752 4279044626
-18.26055 1563.3578 752 4278779923
-17.119267 1563.3578 752 4280095527
-15.977982 1563.3578 752 4281273865
-14.812844 1563.2753 751 4281076230
-13.673394 1563.2753 751 4280813568
122.31376 1563.4404 753 4290245887
123.45688 1563.4404 753 4290179839
124.4 1563.3578 752 4290114047
125.54128 1563.3578 752 4290310399
126.68257 1563.3578 752 4290310399
127.61835 1563.2753 751 4289917183
128.96513 1563.3578 752 4290246143
129.89725 1563.2753 751 4290049023
131.24771 1563.3578 752 4289983231
132.38899 1563.3578 752 4289852415
133.53027 1563.3578 752 4290181119
134.67155 1563.3578 752 4289722111
136.03119 1563.4404 753 4290051071
137.17432 1563.4404 753 4290508543
138.31743 1563.4404 753 4290376959
-26.376146 1562.4587 755 4284380044
-25.229359 1562.4587 755 4280634188
-24.005505 1562.2972 753 4278195992
-22.862385 1562.2972 753 4278193478
-21.719267 1562.2972 753 4281486726
-20.543119 1562.2166 752 4283062662
-19.401834 1562.2166 752 4279838805
-18.26055 1562.2166 752 4280157206
-17.119267 1562.2166 752 4280354842
-15.952293 1562.1357 751 4281207320
-14.812844 1562.1357 751 4281207320
-13.673394 1562.1357 751 4281010944
-12.533945 1562.1357 751 4281076736
-11.394495 1562.1357 751 4281075982
122.11743 1562.2166 752 4290115071
123.25871 1562.2166 752 4290376703
124.2 1562.1357 751 4290245375
125.33945 1562.1357 751 4290310399
126.4789 1562.1357 751 4290310399
127.61835 1562.1357 751 4289982719
128.7578 1562.1357 751 4290179839
129.89725 1562.1357 751 4290049023
131.0367 1562.1357 751 4289983231
132.17615 1562.1357 751 4290049279
133.3156 1562.1357 751 4290246399
134.67155 1562.2166 752 4289918719
135.81285 1562.2166 752 4290116095
137.17432 1562.2972 753 4289721087
-25.188992 1561.233 754 4285429874
-24.005505 1561.1542 753 4286811527
-22.825687 1561.0752 752 4285431673
-21.684404 1561.0752 752 4284971122
-20.510092 1560.9963 751 4285301411
-19.370642 1560.9963 751 4282209141
-18.231194 1560.9963 751 4278193179
-17.091743 1560.9963 751 4278194464
-15.952293 1560.9963 751 4280684063
-14.788991 1560.9175 750 4280552734
-13.651376 1560.9175 750 4281075982
-12.513762 1560.9175 750 4281075982
-11.376146 1560.9175 750 4281010189
-10.238532 1560.9175 750 4281010189
-9.0862389 1560.8385 749 4281207568
-7.9504585 1560.8385 749 4281075982
120.58716 1560.9175 750 4290574335
121.72477 1560.9175 750 4290640383
123.06055 1560.9963 751 4290442751
124 1560.9175 750 4290442751
125.13761 1560.9175 750 4290704895
126.27523 1560.9175 750 4291099391
127.41284 1560.9175 750 4290639359
128.7578 1560.9963 751 4290508031
129.89725 1560.9963 751 4289983231
131.0367 1560.9963 751 4290114815
132.17615 1560.9963 751 4290180095
133.3156 1560.9963 751 4290180095
134.67155 1561.0752 752 4290115071
135.81285 1561.0752 752 4290509823
136.95413 1561.0752 752 4290574335
-25.188992 1560.0881 754 4286347894
-24.005505 1560.011 753 4288255891
-22.825687 1559.934 752 4287207328
-21.684404 1559.934 752 4286878619
-20.510092 1559.8569 751 4285436609
-19.370642 1559.8569 751 4282146959
-18.231194 1559.8569 751 4278195007
-17.091743 1559.8569 751 4278194236
-15.926605 1559.7798 750 4280486171
-14.788991 1559.7798 750 4280749599
-13.651376 1559.7798 750 4281469193
-12.493578 1559.7028 749 4281600779
-11.357799 1559.7028 749 4281075982
-10.222018 1559.7028 749 4281010189
-9.0862389 1559.7028 749 4281207568
-7.9376144 1559.6257 748 4281207568
-6.8036699 1559.6257 748 4281271815
120.39266 1559.7028 749 4289459967
121.52844 1559.7028 749 4289525759
122.66422 1559.7028 749 4289458431
123.8 1559.7028 749 4289590015
124.93578 1559.7028 749 4289917183
126.07156 1559.7028 749 4290509567
127.41284 1559.7798 750 4290443519
128.55046 1559.7798 750 4290377727
129.68808 1559.7798 750 4289983231
130.82568 1559.7798 750 4290114815
132.17615 1559.8569 751 4290376703
133.3156 1559.8569 751 4290442751
134.45505 1559.8569 751 4290442751
135.5945 1559.8569 751 4290376703
136.95413 1559.934 752 4289983231
-24.005505 1558.8679 753 4288847753
-22.825687 1558.7926 752 4287797421
-21.684404 1558.7926 752 4287599785
-20.510092 1558.7174 751 4287273112
-19.370642 1558.7174 751 4284706928
-18.231194 1558.7174 751 4282467963
-17.06422 1558.6422 750 4278323004
-15.926605 1558.6422 750 4279828493
-14.765138 1558.567 749 4280946206
-13.629357 1558.567 749 4281208081
-12.493578 1558.567 749 4281273874
-11.357799 1558.567 749 4280685071
-10.222018 1558.567 749 4280553486
-9.0715599 1558.4917 748 4281207568
-7.9376144 1558.4917 748 4281010189
-6.8036699 1558.4917 748 4281010944
-5.6513762 1558.3413 746 4280879616
118.6789 1558.3413 746 4290115583
120.19817 1558.4917 748 4289983743
121.33211 1558.4917 748 4290247167
122.46606 1558.4917 748 4289983231
123.6 1558.4917 748 4290312191
124.73395 1558.4917 748 4290442751
126.07156 1558.567 749 4290705919
127.20734 1558.567 749 4290639359
128.34312 1558.567 749 4290639359
129.4789 1558.567 749 4290180095
130.82568 1558.6422 750 4290114303
131.9633 1558.6422 750 4289983231
133.10092 1558.6422 750 4290706943
134.45505 1558.7174 751 4290115071
135.5945 1558.7174 751 4289917439
136.73395 1558.7174 751 4290049279
-23.966972 1557.6514 752 4284044083
-22.78899 1557.578 751 4285164140
-21.649542 1557.578 751 4286743172
-20.477064 1557.5046 750 4288255673
-19.339449 1557.5046 750 4286018711
-18.201836 1557.5046 750 4285622140
-17.06422 1557.5046 750 4280490286
-15.900917 1557.4312 749 4279107586
-14.765138 1557.4312 749 4280291093
-13.629357 1557.4312 749 4280750360
-12.473394 1557.3578 748 4280816154
-11.33945 1557.3578 748 4280751114
-10.205504 1557.3578 748 4280685321
-9.0715599 1557.3578 748 4280553238
-7.9376144 1557.3578 748 4280421396
-6.7816515 1557.2111 746 4281076230
-5.6513762 1557.2111 746 4281208072
-4.521101 1557.2111 746 4281207568
-3.401835 1557.3578 748 4281207568
117.3578 1557.1376 745 4290115071
118.48624 1557.1376 745 4290246399
119.80917 1557.2111 746 4289852927
120.93945 1557.2111 746 4289984511
122.46606 1557.3578 748 4289983231
123.6 1557.3578 748 4290312191
124.73395 1557.3578 748 4290508543
125.86789 1557.3578 748 4290705919
127.00183 1557.3578 748 4290311679
128.13577 1557.3578 748 4290377727
129.26973 1557.3578 748 4290179839
130.61469 1557.4312 749 4290114047
131.75046 1557.4312 749 4289721087
133.10092 1557.5046 750 4290115839
134.23853 1557.5046 750 4289787135
-22.752293 1556.3669 750 4281348144
-21.614679 1556.3669 750 4285624689
-20.444036 1556.2954 749 4286086326
-19.308256 1556.2954 749 4285428652
-18.201836 1556.3669 750 4285098084
-17.036697 1556.2954 749 4281281833
-15.900917 1556.2954 749 4279238696
-14.765138 1556.2954 749 4279765040
-13.60734 1556.2239 748 4280684567
-12.473394 1556.2239 748 4280750360
-11.33945 1556.2239 748 4280422656
-10.205504 1556.2239 748 4280554240
-9.0715599 1556.2239 748 4280685071
-7.9119267 1556.0807 746 4280685071
-6.7816515 1556.0807 746 4281076752
-5.6422019 1556.0092 745 4281076752
-4.5137615 1556.0092 745 4281207320
-3.401835 1556.2239 748 4281207320
-2.2715597 1556.2954 749 4281207833
-1.133945 1556.2239 748 4281207833
114.72661 1555.8661 743 4289983231
116.04037 1555.9376 744 4290049023
117.16697 1555.9376 744 4290115071
118.29358 1555.9376 744 4290706943
119.61468 1556.0092 745 4290377727
120.74312 1556.0092 745 4290311679
122.06973 1556.0807 746 4290508543
123.2 1556.0807 746 4290706175
124.33028 1556.0807 746 4291099647
125.86789 1556.2239 748 4291165439
127.00183 1556.2239 748 4290442751
128.13577 1556.2239 748 4290245375
129.26973 1556.2239 748 4290245887
130.40367 1556.2239 748 4290706431
131.75046 1556.2954 749 4290574335
132.88625 1556.2954 749 4290640383
134.02202 1556.2954 749 4290377727
-20.444036 1555.1597 749 4285297805
-19.339449 1555.2294 750 4284837254
-18.201836 1555.2294 750 4284314741
-17.036697 1555.1597 749 4283064418
-15.900917 1555.1597 749 4282269023
-14.765138 1555.1597 749 4279900475
-13.60734 1555.09 748 4280615168
-12.473394 1555.09 748 4281141766
-11.33945 1555.09 748 4281075982
-10.205504 1555.09 748 4281273361
-9.042202 1554.9504 746 4281207833
-7.9119267 1554.9504 746 4281207833
-6.7706423 1554.8807 745 4281273874
-5.6422019 1554.8807 745 4281208081
-4.5137615 1554.8807 745 4281207833
-3.3853211 1554.8807 745 4281273626
-2.2568808 1554.8807 745 4280685338
-1.1266055 1554.811 744 4280619544
0 1554.7413 743 4281339668
1.1247706 1554.7413 743 4281339668
108.92477 1554.6715 742 4291034111
110.04771 1554.6715 742 4289983743
111.35229 1554.7413 743 4290247167
112.47707 1554.7413 743 4290049791
113.60184 1554.7413 743 4290181375
114.72661 1554.7413 743 4290049023
115.85138 1554.7413 743 4290049023
116.97615 1554.7413 743 4289852415
118.10091 1554.7413 743 4290247167
119.42018 1554.811 744 4289852927
120.54679 1554.811 744 4290116095
121.87156 1554.8807 745 4290377727
123 1554.8807 745 4290443519
124.33028 1554.9504 746 4290311679
125.46055 1554.9504 746 4290443519
127.00183 1555.09 748 4290245887
128.13577 1555.09 748 4290245887
129.26973 1555.09 748 4290115071
130.40367 1555.09 748 4290443775
131.53761 1555.09 748 4289853439
132.88625 1555.1597 749 4290051071
134.02202 1555.1597 749 4290115071
-18.172478 1554.0238 749 4284901241
-17.036697 1554.0238 749 4286151565
-15.875229 1553.9559 748 4285095531
-14.741284 1553.9559 748 4280687399
-13.60734 1553.9559 748 4279304192
-12.433027 1553.8202 746 4280289800
-11.302752 1553.8202 746 4280487445
-10.172477 1553.8202 746 4280750360
-9.027523 1553.7523 745 4281208081
-7.8990827 1553.7523 745 4281208081
-6.7596331 1553.6844 744 4281273874
-5.6330276 1553.6844 744 4281273874
-4.506422 1553.6844 744 4281207833
-3.3798165 1553.6844 744 4281273626
-2.253211 1553.6844 744 4280816417
-1.1266055 1553.6844 744 4280685088
0 1553.6165 743 4280750360
1.1211009 1553.4807 741 4280750360
2.2422018 1553.4807 741 4280685338
107.80183 1553.5486 742 4291624959
108.92477 1553.5486 742 4291098623
110.04771 1553.5486 742 4290705407
111.35229 1553.6165 743 4290902783
112.47707 1553.6165 743 4290508543
113.60184 1553.6165 743 4290574335
114.72661 1553.6165 743 4290771199
115.85138 1553.6165 743 4290902783
116.97615 1553.6165 743 4290574335
118.10091 1553.6165 743 4290706175
119.22569 1553.6165 743 4290508543
120.35046 1553.6165 743 4290508543
121.67339 1553.6844 744 4290508543
122.8 1553.6844 744 4290640127
124.12844 1553.7523 745 4290377727
125.46055 1553.8202 746 4290311935
127.00183 1553.9559 748 4290705407
128.13577 1553.9559 748 4290771199
129.26973 1553.9559 748 4290311679
130.61469 1554.0238 749 4290772223
131.53761 1553.9559 748 4290640383
132.88625 1554.0238 749 4290706175
-18.172478 1552.8881 749 4283579711
-17.036697 1552.8881 749 4285356122
-15.875229 1552.822 748 4285555843
-14.741284 1552.822 748 4281937229
-13.60734 1552.822 748 4280686364
-12.433027 1552.6899 746 4280686364
-11.284404 1552.6239 745 4280421148
-10.155963 1552.6239 745 4280486941
-9.027523 1552.6239 745 4281208081
-7.8862386 1552.5577 744 4281076752
-6.7596331 1552.5577 744 4281142279
-5.6330276 1552.5577 744 4281339658
-4.506422 1552.5577 744 4281273874
-3.3798165 1552.5577 744 4281405717
-2.2495413 1552.4917 743 4281404961
-1.1247706 1552.4917 743 4281339168
0 1552.4917 743 4280685338
1.1211009 1552.3596 741 4280685338
2.2422018 1552.3596 741 4280816667
3.3577981 1552.2936 740 4280816667
4.4844036 1552.3596 741 4281273874
106.15596 1552.2275 739 4290707455
107.80183 1552.4257 742 4290968831
108.92477 1552.4257 742 4290639615
109.86789 1552.3596 741 4290245375
111.17064 1552.4257 742 4290574335
112.29358 1552.4257 742 4290049279
113.60184 1552.4917 743 4290377983
114.53945 1552.4257 742 4290640895
115.85138 1552.4917 743 4290706687
116.78532 1552.4257 742 4289984767
118.10091 1552.4917 743 4290247679
119.22569 1552.4917 743 4290574335
120.35046 1552.4917 743 4290574335
121.47523 1552.4917 743 4290574335
122.6 1552.4917 743 4290640383
123.92661 1552.5577 744 4290510079
125.46055 1552.6899 746 4290378239
126.59083 1552.6899 746 4290574847
128.13577 1552.822 748 4290574847
129.26973 1552.822 748 4289721087
130.40367 1552.822 748 4290115839
-18.201836 1551.8165 750 4280621312
-17.036697 1551.7523 749 4283252766
-15.900917 1551.7523 749 4284044137
-14.741284 1551.6881 748 4284241517
-13.60734 1551.6881 748 4282726992
-12.433027 1551.5596 746 4282200648
-11.284404 1551.4954 745 4282196260
-10.155963 1551.4954 745 4280814607
-9.027523 1551.4954 745 4280684567
-7.8862386 1551.4312 744 4280816154
-6.7596331 1551.4312 744 4281076230
-5.6238532 1551.3669 743 4281208072
-4.4990826 1551.3669 743 4281273874
-3.3743119 1551.3669 743 4281339668
-2.2495413 1551.3669 743 4281339668
-1.1247706 1551.3669 743 4281339668
0 1551.3027 742 4281339668
1.1211009 1551.2385 741 4281339668
2.2422018 1551.2385 741 4281339420
3.3633027 1551.2385 741 4281273626
4.4844036 1551.2385 741 4281207833
5.5963302 1551.1743 740 4281339420
102.80367 1551.1101 739 4291358207
103.9211 1551.1101 739 4292279295
105.03853 1551.1101 739 4291624959
106.15596 1551.1101 739 4291230207
107.44954 1551.1743 740 4290705407
108.92477 1551.3027 742 4290442239
109.86789 1551.2385 741 4290442239
111.17064 1551.3027 742 4290771199
112.29358 1551.3027 742 4290049279
113.41651 1551.3027 742 4290312191
114.53945 1551.3027 742 4290836991
115.66238 1551.3027 742 4290836991
116.78532 1551.3027 742 4290311679
118.10091 1551.3669 743 4290443519
119.22569 1551.3669 743 4290706175
120.35046 1551.3669 743 4290903295
121.47523 1551.3669 743 4290836991
122.6 1551.3669 743 4290771199
123.92661 1551.4312 744 4290640895
125.05321 1551.4312 744 4290904063
126.59083 1551.5596 746 4290969087
127.7211 1551.5596 746 4290969087
-17.036697 1550.6165 749 4281934873
-15.900917 1550.6165 749 4282202447
-14.741284 1550.5541 748 4282334033
-13.60734 1550.5541 748 4282662471
-12.433027 1550.4293 746 4282201920
-11.284404 1550.3669 745 4282198068
-10.155963 1550.3669 745 4280948257
-9.0128441 1550.3046 744 4280750110
-7.8862386 1550.3046 744 4280750110
-6.7596331 1550.3046 744 4280685842
-5.6238532 1550.2422 743 4280685842
-4.4990826 1550.2422 743 4281339420
-3.3743119 1550.2422 743 4281339420
-2.2495413 1550.2422 743 4281339668
-1.1247706 1550.2422 743 4281339668
0 1550.1798 742 4281339420
1.1211009 1550.1174 741 4281405213
2.2422018 1550.1174 741 4281405213
3.3577981 1550.0551 740 4281405213
4.4770641 1550.0551 740 4281339668
5.5963302 1550.0551 740 4281339668
6.704587 1549.9927 739 4281339668
7.8220181 1549.9927 739 4281339668
8.9247704 1549.9303 738 4281405717
10.023853 1549.8679 737 4281471510
100.73395 1550.0551 740 4281565134
101.68624 1549.9927 739 4289131263
102.80367 1549.9927 739 4290182911
103.9211 1549.9927 739 4290445311
105.03853 1549.9927 739 4290903039
106.15596 1549.9927 739 4290837247
107.44954 1550.0551 740 4290771199
108.56881 1550.0551 740 4290639615
109.68807 1550.0551 740 4290704895
111.17064 1550.1798 742 4290704895
112.29358 1550.1798 742 4289917439
113.41651 1550.1798 742 4290246143
114.53945 1550.1798 742 4290442751
115.66238 1550.1798 742 4290574335
116.78532 1550.1798 742 4289852415
117.90826 1550.1798 742 4290247167
119.03119 1550.1798 742 4290247423
120.35046 1550.2422 743 4290444543
121.47523 1550.2422 743 4290313215
122.6 1550.2422 743 4290247423
123.72477 1550.2422 743 4289918719
124.84954 1550.2422 743 4290247679
126.59083 1550.4293 746 4290510079
-15.875229 1549.4202 748 4280096030
-14.741284 1549.4202 748 4280358946
-13.563303 1549.2991 746 4280819517
-12.412844 1549.2385 745 4282069584
-11.266055 1549.178 744 4282001697
-10.139449 1549.178 744 4281014802
-9.0128441 1549.178 744 4280817448
-7.8862386 1549.178 744 4280817448
-6.7596331 1549.178 744 4280815904
-5.6238532 1549.1174 743 4280881697
-4.4990826 1549.1174 743 4281405213
-3.3743119 1549.1174 743 4281405213
-2.2495413 1549.1174 743 4280816917
-1.1247706 1549.1174 743 4280816917
0 1549.0569 742 4280816667
1.1211009 1548.9963 741 4280816667
2.2385321 1548.9358 740 4280948003
3.3577981 1548.9358 740 4281014052
4.4770641 1548.9358 740 4281471758
5.5871558 1548.8752 739 4281405965
6.704587 1548.8752 739 4281339668
7.8091745 1548.8147 738 4281339668
8.9247704 1548.8147 738 4281339668
10.023853 1548.7542 737 4281405717
99.451378 1548.8752 739 4284790261
100.56881 1548.8752 739 4287153663
101.68624 1548.8752 739 4290837759
102.63486 1548.8147 738 4291821567
103.75046 1548.8147 738 4291163903
105.03853 1548.8752 739 4290639359
106.15596 1548.8752 739 4290771199
107.27339 1548.8752 739 4290640383
108.56881 1548.9358 740 4290574591
109.50826 1548.8752 739 4290705407
110.98899 1548.9963 741 4290902783
112.11009 1548.9963 741 4290771199
113.23119 1548.9963 741 4290968831
114.35229 1548.9963 741 4290903039
115.4734 1548.9963 741 4290968831
116.78532 1549.0569 742 4290377727
117.90826 1549.0569 742 4290377727
119.03119 1549.0569 742 4290706175
120.35046 1549.1174 743 4290903295
121.47523 1549.1174 743 4290574591
122.6 1549.1174 743 4290574591
123.92661 1549.178 744 4290771199
-14.741284 1548.2863 748 4280750360
-13.563303 1548.1688 746 4280686884
-12.39266 1548.0514 744 4281081642
-11.266055 1548.0514 744 4281147433
-10.139449 1548.0514 744 4280752931
-9.0128441 1548.0514 744 4281079594
-7.8862386 1548.0514 744 4281079594
-6.7486238 1547.9927 743 4280948003
-5.6238532 1547.9927 743 4280948003
-4.4990826 1547.9927 743 4281014052
-3.3743119 1547.9927 743 4280816417
-2.2458715 1547.934 742 4280882460
-1.1229358 1547.934 742 4280948509
0 1547.8752 741 4280687134
1.119266 1547.8165 740 4280752927
2.2385321 1547.8165 740 4280752927
3.3522935 1547.7578 739 4280687134
4.4697247 1547.7578 739 4281015056
5.5871558 1547.7578 739 4281015056
6.6935778 1547.6991 738 4280816908
7.8091745 1547.6991 738 4280751114
8.9247704 1547.6991 738 4281274378
10.007339 1547.5817 736 4281405965
11.119267 1547.5817 736 4280948759
12.190825 1547.4642 734 4280685588
94.981651 1547.7578 739 4281539895
96.099083 1547.7578 739 4280430665
97.216515 1547.7578 739 4281022802
98.333946 1547.7578 739 4279263651
99.451378 1547.7578 739 4287355903
100.56881 1547.7578 739 4288669951
101.51926 1547.6991 738 4290248703
102.63486 1547.6991 738 4291165695
103.75046 1547.6991 738 4290770943
104.86606 1547.6991 738 4290442751
106.15596 1547.7578 739 4290640127
107.27339 1547.7578 739 4290574335
108.39082 1547.7578 739 4290574335
109.50826 1547.7578 739 4290574591
110.62569 1547.7578 739 4290706175
111.92661 1547.8165 740 4290640383
113.04587 1547.8165 740 4290837503
114.16514 1547.8165 740 4290116095
115.4734 1547.8752 741 4290313727
116.5945 1547.8752 741 4290116095
117.90826 1547.934 742 4290313727
119.03119 1547.934 742 4291296511
120.15413 1547.934 742 4291033343
121.47523 1547.9927 743 4290179583
122.6 1547.9927 743 4290574335
-13.519266 1546.9248 744 4281014302
-12.39266 1546.9248 744 4281014302
-11.247706 1546.8679 743 4281079845
-10.139449 1546.9248 744 4281145639
-9.0128441 1546.9248 744 4281079845
-7.8862386 1546.9248 744 4281079845
-6.7486238 1546.8679 743 4281079845
-5.6238532 1546.8679 743 4281079845
-4.4990826 1546.8679 743 4281470754
-3.3743119 1546.8679 743 4281536803
-2.2458715 1546.811 742 4281014052
-1.1229358 1546.811 742 4280816417
0 1546.7542 741 4281014302
1.1174312 1546.6404 739 4281080095
2.2348623 1546.6404 739 4281015065
3.3522935 1546.6404 739 4280751894
4.4697247 1546.6404 739 4281406215
5.5779815 1546.5835 738 4281406215
6.6935778 1546.5835 738 4281405965
7.8091745 1546.5835 738 4281340172
8.9100914 1546.5266 737 4281340421
10.007339 1546.4697 736 4281472008
11.119267 1546.4697 736 4280883214
12.190825 1546.356 734 4280620298
13.299083 1546.356 734 4281339668
16.623854 1546.356 734 4281471510
17.732111 1546.356 734 4281537053
18.902752 1546.4697 736 4281537053
93.86422 1546.6404 739 4281477693
94.981651 1546.6404 739 4283912034
96.099083 1546.6404 739 4281683580
97.216515 1546.6404 739 4284315044
98.172478 1546.5835 738 4281108476
99.288071 1546.5835 738 4288740095
100.40367 1546.5835 738 4291558399
101.51926 1546.5835 738 4291229695
102.63486 1546.5835 738 4290705407
103.75046 1546.5835 738 4290771199
104.86606 1546.5835 738 4290639359
105.98165 1546.5835 738 4290836991
107.09724 1546.5835 738 4290836991
108.39082 1546.6404 739 4290968831
109.50826 1546.6404 739 4290837247
110.62569 1546.6404 739 4290771199
111.74312 1546.6404 739 4290771199
113.04587 1546.6973 740 4291034623
114.16514 1546.6973 740 4290837247
115.4734 1546.7542 741 4290968831
116.5945 1546.7542 741 4290903039
117.90826 1546.811 742 4291297279
119.03119 1546.811 742 4291033855
120.15413 1546.811 742 4290705151
121.47523 1546.8679 743 4290639615
122.6 1546.8679 743 4290968831
-11.266055 1545.7982 744 4281471006
-10.139449 1545.7982 744 4281471006
-9.0128441 1545.7982 744 4281014302
-7.8862386 1545.7982 744 4281014302
-6.7486238 1545.7432 743 4281145889
-5.6238532 1545.7432 743 4281080095
-4.4917431 1545.6881 742 4281733925
-3.3688073 1545.6881 742 4281997354
-2.2458715 1545.6881 742 4281866025
-1.1211009 1545.6331 741 4281668903
0 1545.578 740 4280750360
1.1174312 1545.5229 739 4281210911
2.2348623 1545.5229 739 4281080345
3.3522935 1545.5229 739 4280948759
4.4697247 1545.5229 739 4280948759
5.5779815 1545.4679 738 4280816917
6.6935778 1545.4679 738 4281405717
7.7963305 1545.4128 737 4281405717
8.9100914 1545.4128 737 4281405965
10.007339 1545.3578 736 4281471758
11.119267 1545.3578 736 4281014552
12.231193 1545.3578 736 4280882966
13.299083 1545.2477 734 4281339668
14.407339 1545.2477 734 4281471510
15.566973 1545.3578 736 4281471510
16.623854 1545.2477 734 4281405717
17.790825 1545.3578 736 4281014302
18.902752 1545.3578 736 4280948509
20.047707 1545.4128 737 4281537816
90.877068 1545.2477 734 4281344310
91.985321 1545.2477 734 4281212981
93.555962 1545.4128 737 4282464329
94.669724 1545.4128 737 4283780188
95.783485 1545.4128 737 4282209922
96.897247 1545.4128 737 4286420674
98.011009 1545.4128 737 4286823679
99.288071 1545.4679 738 4290310655
100.40367 1545.4679 738 4290836991
101.51926 1545.4679 738 4290639615
102.63486 1545.4679 738 4290508543
103.75046 1545.4679 738 4290508543
104.86606 1545.4679 738 4290180095
105.98165 1545.4679 738 4290377471
107.09724 1545.4679 738 4290442751
108.21284 1545.4679 738 4290706175
109.32844 1545.4679 738 4290968831
110.44404 1545.4679 738 4290771455
111.74312 1545.5229 739 4289983231
112.86055 1545.5229 739 4290377983
113.97798 1545.5229 739 4290377727
115.2844 1545.578 740 4290574847
116.5945 1545.6331 741 4290377727
117.7156 1545.6331 741 4290443519
118.8367 1545.6331 741 4290639615
119.9578 1545.6331 741 4290705407
121.27706 1545.6881 742 4290771199
-16.38899 1545.9486 768 4280552734
-14.025688 1545.8954 767 4280750110
-10.139449 1544.6715 744 4280815906
-9.0128441 1544.6715 744 4281339668
-7.8862386 1544.6715 744 4281405717
-6.7486238 1544.6184 743 4281537566
-5.6238532 1544.6184 743 4281603359
-4.4917431 1544.5652 742 4281733676
-3.3688073 1544.5652 742 4282128433
-2.2422018 1544.512 741 4281738037
-1.1211009 1544.512 741 4281672244
0 1544.4587 740 4281541410
1.1174312 1544.4055 739 4281212445
2.2348623 1544.4055 739 4281866781
3.3522935 1544.4055 739 4281669403
4.4697247 1544.4055 739 4281014302
5.5779815 1544.3523 738 4281014302
6.6935778 1544.3523 738 4281472023
7.8091745 1544.3523 738 4281472023
8.9100914 1544.2991 737 4281339668
10.023853 1544.2991 737 4281405717
11.119267 1544.2458 736 4280948759
12.231193 1544.2458 736 4280948759
13.299083 1544.1394 734 4281471510
14.407339 1544.1394 734 4281471510
15.515596 1544.1394 734 4281405717
16.623854 1544.1394 734 4281537303
17.732111 1544.1394 734 4281537816
18.840366 1544.1394 734 4281537816
20.014679 1544.2458 736 4281603609
21.126606 1544.2458 736 4281603609
88.660553 1544.1394 734 4281014845
89.768806 1544.1394 734 4282857049
90.877068 1544.1394 734 4283254874
91.985321 1544.1394 734 4284175976
93.401833 1544.2458 736 4284178022
94.513763 1544.2458 736 4285164917
95.625687 1544.2458 736 4281693377
96.897247 1544.2991 737 4288996351
98.011009 1544.2991 737 4291490559
99.124771 1544.2991 737 4292214271
100.40367 1544.3523 738 4290967807
101.51926 1544.3523 738 4290573311
102.63486 1544.3523 738 4290640383
103.57982 1544.2991 737 4290706175
104.69358 1544.2991 737 4290245887
105.98165 1544.3523 738 4290640639
107.09724 1544.3523 738 4290837247
108.21284 1544.3523 738 4290771455
109.32844 1544.3523 738 4290837247
110.44404 1544.3523 738 4290968831
111.55963 1544.3523 738 4290245887
112.86055 1544.4055 739 4290640639
113.97798 1544.4055 739 4290640383
115.09541 1544.4055 739 4290837503
116.40367 1544.4587 740 4290574335
117.52293 1544.4587 740 4290508543
118.8367 1544.512 741 4290705407
119.9578 1544.512 741 4290902783
-16.38899 1544.778 768 4280551964
-15.218349 1544.778 768 4280749599
-14.025688 1544.7266 767 4280684063
-12.856881 1544.7266 767 4280750113
-11.688073 1544.7266 767 4280553238
-10.519266 1544.7266 767 4280816154
-9.3504591 1544.7266 767 4280685842
-7.8605504 1543.4423 742 4280817171
-6.7376146 1543.4423 742 4280816417
-5.6238532 1543.4935 743 4281014052
-4.4990826 1543.4935 743 4281079845
-3.3743119 1543.4935 743 4281408554
-2.2422018 1543.3909 741 4281343535
-1.119266 1543.3395 740 4281606451
0 1543.3395 740 4282261033
1.1174312 1543.2881 739 4281998117
2.2348623 1543.2881 739 4281932324
3.3467889 1543.2367 738 4281932324
4.4623852 1543.2367 738 4281277486
5.5779815 1543.2367 738 4281080107
6.6935778 1543.2367 738 4281145889
7.7963305 1543.1853 737 4281080095
8.9100914 1543.1853 737 4281603609
10.023853 1543.1853 737 4281537816
11.119267 1543.1339 736 4281014552
12.190825 1543.0312 734 4281080345
13.299083 1543.0312 734 4281080345
14.407339 1543.0312 734 4281014552
15.515596 1543.0312 734 4280882966
16.623854 1543.0312 734 4281080345
17.732111 1543.0312 734 4281080345
18.840366 1543.0312 734 4281080345
19.948624 1543.0312 734 4281603609
21.126606 1543.1339 736 4281537816
22.165138 1543.0312 734 4281471006
23.273394 1543.0312 734 4281405213
79.794495 1543.0312 734 4280420676
84.088074 1542.9799 733 4282068285
85.194496 1542.9799 733 4281805113
86.444038 1543.0312 734 4281737539
87.407341 1542.9799 733 4282000455
88.660553 1543.0312 734 4281280068
89.768806 1543.0312 734 4282793051
90.877068 1543.0312 734 4283518564
91.985321 1543.0312 734 4284636788
93.093575 1543.0312 734 4283983494
94.513763 1543.1339 736 4285759648
95.941284 1543.2367 738 4284718824
97.056877 1543.2367 738 4289587455
97.849541 1543.1339 736 4290836991
99.124771 1543.1853 737 4291034623
100.23853 1543.1853 737 4290115583
101.35229 1543.1853 737 4290181375
102.46606 1543.1853 737 4291295999
103.57982 1543.1853 737 4291164415
104.69358 1543.1853 737 4289983743
105.80734 1543.1853 737 4290510335
106.9211 1543.1853 737 4291230719
108.21284 1543.2367 738 4290967551
109.32844 1543.2367 738 4290771199
110.44404 1543.2367 738 4290968831
111.55963 1543.2367 738 4289984767
112.86055 1543.2881 739 4290313727
113.97798 1543.2881 739 4290575103
115.09541 1543.2881 739 4290706687
116.40367 1543.3395 740 4290837247
117.52293 1543.3395 740 4290771199
118.6422 1543.3395 740 4290706175
-15.194495 1543.5577 767 4280290593
-14.025688 1543.5577 767 4280159507
-12.856881 1543.5577 767 4280356886
-11.688073 1543.5577 767 4280750360
-10.519266 1543.5577 767 4280684567
-9.3504591 1543.5577 767 4280422150
-8.168807 1543.5083 766 4280685321
-6.7376146 1542.3192 742 4280684063
-5.6146789 1542.3192 742 4280815906
-4.4917431 1542.3192 742 4280815904
-3.3688073 1542.3192 742 4280947490
-2.2422018 1542.2698 741 4281014052
-1.119266 1542.2202 740 4281145639
0 1542.2202 740 4281669153
1.1155963 1542.1211 738 4281866275
2.2311926 1542.1211 738 4281866275
3.3467889 1542.1211 738 4282063910
4.4623852 1542.1211 738 4281409601
5.5779815 1542.1211 738 4281080636
6.682569 1542.0715 737 4281146402
7.7963305 1542.0715 737 4281146402
8.9100914 1542.0715 737 4281146402
10.007339 1542.022 736 4281080609
11.119267 1542.022 736 4281080859
12.190825 1541.923 734 4281015065
13.299083 1541.923 734 4281014552
14.407339 1541.923 734 4280948759
15.515596 1541.923 734 4281014302
16.623854 1541.923 734 4280882460
17.732111 1541.923 734 4281080345
18.840366 1541.923 734 4281080345
19.948624 1541.923 734 4281537566
21.056881 1541.923 734 4281603359
22.128441 1541.8734 733 4281537566
23.273394 1541.923 734 4281471773
24.381651 1541.923 734 4281014302
25.489908 1541.923 734 4280882460
26.598166 1541.923 734 4280816667
27.660551 1541.8734 733 4280816667
32.245872 1542.022 736 4281536781
79.794495 1541.923 734 4286411152
80.902756 1541.923 734 4287134876
82.011009 1541.923 734 4286083219
83.119263 1541.923 734 4282990947
84.227524 1541.923 734 4281016390
85.335777 1541.923 734 4281016390
86.444038 1541.923 734 4280819267
87.552292 1541.923 734 4282990180
88.660553 1541.923 734 4283847524
89.768806 1541.923 734 4285492349
90.877068 1541.923 734 4284574075
91.985321 1541.923 734 4284837504
93.093575 1541.923 734 4283070625
94.201836 1541.923 734 4288596981
95.310089 1541.923 734 4289518847
96.737617 1542.022 736 4291361023
97.849541 1542.022 736 4291624959
98.961472 1542.022 736 4291559167
100.07339 1542.022 736 4290705407
101.18532 1542.022 736 4290705407
102.46606 1542.0715 737 4290837247
103.40917 1542.022 736 4290903039
104.5211 1542.022 736 4290837247
105.80734 1542.0715 737 4291034879
106.9211 1542.0715 737 4290903039
108.21284 1542.1211 738 4290705663
109.32844 1542.1211 738 4290836991
110.44404 1542.1211 738 4291362815
111.55963 1542.1211 738 4290968831
112.67523 1542.1211 738 4290968831
113.79082 1542.1211 738 4290640383
115.09541 1542.1707 739 4290706175
116.21284 1542.1707 739 4290706175
117.33028 1542.1707 739 4290574591
118.44771 1542.1707 739 4290640383
-11.688073 1542.389 767 4280684063
-10.519266 1542.389 767 4280750113
-9.3357801 1542.3413 766 4280553486
-8.168807 1542.3413 766 4280553486
-6.9908257 1542.2936 765 4280750110
-5.7981653 1542.1505 762 4280815904
-4.6385322 1542.1505 762 4280815904
-3.478899 1542.1505 762 4280881697
-2.2385321 1541.101 740 4280816417
-1.119266 1541.101 740 4280816417
0 1541.101 740 4281405213
1.1155963 1541.0055 738 4281536799
2.2311926 1541.0055 738 4281015065
3.3467889 1541.0055 738 4281080859
4.4623852 1541.0055 738 4281342259
5.5779815 1541.0055 738 4281145137
6.6935778 1541.0055 738 4281146652
7.7963305 1540.9578 737 4281146652
8.9100914 1540.9578 737 4281016099
10.007339 1540.91 736 4281016099
11.082569 1540.8147 734 4281079845
12.190825 1540.8147 734 4280882210
13.299083 1540.8147 734 4281339420
14.407339 1540.8147 734 4281405213
15.515596 1540.8147 734 4281537053
16.623854 1540.8147 734 4281668382
17.732111 1540.8147 734 4281537566
18.840366 1540.8147 734 4281603359
19.948624 1540.8147 734 4281537566
21.056881 1540.8147 734 4281603359
22.165138 1540.8147 734 4281668132
23.273394 1540.8147 734 4281668132
24.381651 1540.8147 734 4281537816
25.489908 1540.8147 734 4281537816
26.554129 1540.767 733 4281080345
27.660551 1540.767 733 4281080345
28.814678 1540.8147 734 4281014302
29.922935 1540.8147 734 4280816667
31.031193 1540.8147 734 4281339668
32.13945 1540.8147 734 4281405717
33.192661 1540.767 733 4280816667
34.242203 1540.7192 732 4280816667
35.288074 1540.6715 731 4281471510
77.449539 1540.767 733 4283318673
78.555962 1540.767 733 4285489841
79.662384 1540.767 733 4287201449
80.768806 1540.767 733 4286280347
82.011009 1540.8147 734 4285098904
83.119263 1540.8147 734 4281743461
84.227524 1540.8147 734 4279439141
85.335777 1540.8147 734 4281084222
86.444038 1540.8147 734 4281085515
87.407341 1540.767 733 4282796133
88.660553 1540.8147 734 4284177772
89.620186 1540.767 733 4285362046
90.726608 1540.767 733 4283263359
91.833031 1540.767 733 4283921290
92.939453 1540.767 733 4283402455
94.201836 1540.8147 734 4289126655
95.310089 1540.8147 734 4289786367
96.41835 1540.8147 734 4290575871
97.526604 1540.8147 734 4290968831
98.634865 1540.8147 734 4290837247
99.743118 1540.8147 734 4290245887
101.18532 1540.91 736 4290574847
102.29725 1540.91 736 4290771199
103.40917 1540.91 736 4290902783
104.5211 1540.91 736 4290903039
105.80734 1540.9578 737 4290968831
106.9211 1540.9578 737 4290574335
108.21284 1541.0055 738 4290640383
109.32844 1541.0055 738 4290903039
110.44404 1541.0055 738 4290968831
111.55963 1541.0055 738 4290378239
112.67523 1541.0055 738 4290378239
113.79082 1541.0055 738 4290508543
114.90643 1541.0055 738 4290640383
116.02202 1541.0055 738 4290377727
117.13761 1541.0055 738 4290443519
-10.502752 1541.1743 766 4280553509
-9.3357801 1541.1743 766 4280684063
-8.1559629 1541.1284 765 4280750113
-6.9908257 1541.1284 765 4280816667
-5.7981653 1540.9908 762 4280685338
-4.6385322 1540.9908 762 4280815654
-3.478899 1540.9908 762 4280881447
-2.3192661 1540.9908 762 4280816417
-1.1577982 1540.9449 761 4280685088
0 1540.9449 761 4281273626
1.1559633 1540.899 760 4281405213
2.2311926 1539.8899 738 4281208081
3.3467889 1539.8899 738 4281273874
4.4623852 1539.8899 738 4280685862
5.5779815 1539.8899 738 4280817448
6.6935778 1539.8899 738 4281015056
7.8091745 1539.8899 738 4281146642
8.9100914 1539.844 737 4281212195
10.023853 1539.844 737 4281277988
11.119267 1539.7982 736 4281474864
12.231193 1539.7982 736 4281014314
13.299083 1539.7064 734 4281537053
14.407339 1539.7064 734 4281668382
15.515596 1539.7064 734 4281014302
16.623854 1539.7064 734 4281080095
17.732111 1539.7064 734 4281079845
18.840366 1539.7064 734 4281079845
19.948624 1539.7064 734 4281014302
21.022018 1539.6605 733 4281014302
22.128441 1539.6605 733 4281079845
23.234863 1539.6605 733 4281014052
24.381651 1539.7064 734 4281014302
25.489908 1539.7064 734 4281014302
26.554129 1539.6605 733 4281015065
27.660551 1539.6605 733 4280883736
28.766972 1539.6605 733 4281014052
29.873394 1539.6605 733 4280816417
30.979816 1539.6605 733 4281405717
32.086239 1539.6605 733 4281668632
33.137615 1539.6146 732 4281405213
34.242203 1539.6146 732 4281339420
35.34679 1539.6146 732 4280948759
36.451378 1539.6146 732 4280816917
37.49358 1539.5688 731 4281274628
38.596329 1539.5688 731 4281472008
77.321098 1539.6146 732 4288648160
78.555962 1539.6605 733 4286016183
79.662384 1539.6605 733 4279970718
80.768806 1539.6605 733 4278194307
81.875229 1539.6605 733 4279444038
82.981651 1539.6605 733 4279773003
84.088074 1539.6605 733 4282202426
85.194496 1539.6605 733 4284768097
86.300919 1539.6605 733 4285096574
87.407341 1539.6605 733 4285820296
88.513763 1539.6605 733 4284573814
89.620186 1539.6605 733 4284770936
90.726608 1539.6605 733 4282348170
91.833031 1539.6605 733 4287348181
92.939453 1539.6605 733 4288861183
94.045868 1539.6605 733 4291624447
95.310089 1539.7064 734 4292149247
96.41835 1539.7064 734 4291820799
97.526604 1539.7064 734 4290705407
98.634865 1539.7064 734 4290639615
99.743118 1539.7064 734 4290639615
101.18532 1539.7982 736 4291231743
102.29725 1539.7982 736 4290903039
103.40917 1539.7982 736 4290903039
104.5211 1539.7982 736 4290903039
105.80734 1539.844 737 4291034879
106.9211 1539.844 737 4291099903
108.03486 1539.844 737 4290968319
109.32844 1539.8899 738 4290837247
110.44404 1539.8899 738 4290903039
111.55963 1539.8899 738 4290771199
112.67523 1539.8899 738 4290771199
113.60367 1539.844 737 4290312447
114.90643 1539.8899 738 4290772991
116.02202 1539.8899 738 4290837503
-10.502752 1540.0073 766 4280226347
-9.3357801 1540.0073 766 4280554533
-8.1559629 1539.9633 765 4280488740
-6.9908257 1539.9633 765 4280815654
-5.8256879 1539.9633 765 4280881447
-4.6532111 1539.9193 764 4280685862
-3.478899 1539.8312 762 4280685862
-2.3192661 1539.8312 762 4280686114
-1.1577982 1539.7871 761 4280554785
0 1539.7432 760 4280816667
1.1559633 1539.7432 760 4280816667
2.3045871 1539.655 758 4280816917
3.4568808 1539.655 758 4280816917
4.4697247 1538.8184 739 4280686114
5.5871558 1538.8184 739 4280554785
6.704587 1538.8184 739 4280621341
7.8091745 1538.7743 738 4280752927
8.9247704 1538.7743 738 4281145889
10.023853 1538.7302 737 4281145889
11.119267 1538.6863 736 4281145639
12.231193 1538.6863 736 4281079845
13.299083 1538.5981 734 4281014552
14.407339 1538.5981 734 4281014552
15.515596 1538.5981 734 4280948003
16.623854 1538.5981 734 4281014052
17.732111 1538.5981 734 4280752931
18.809174 1538.5541 733 4280686882
19.915596 1538.5541 733 4280816667
21.022018 1538.5541 733 4280882460
22.128441 1538.5541 733 4280948003
23.234863 1538.5541 733 4280882210
24.341284 1538.5541 733 4281014302
25.447706 1538.5541 733 4280948509
26.554129 1538.5541 733 4280816667
27.660551 1538.5541 733 4280816667
28.766972 1538.5541 733 4280882210
29.873394 1538.5541 733 4280882210
30.92844 1538.5101 732 4281014302
32.033028 1538.5101 732 4281014302
33.137615 1538.5101 732 4280948003
34.242203 1538.5101 732 4280619294
35.288074 1538.4661 731 4280882460
36.390827 1538.4661 731 4281014302
37.49358 1538.4661 731 4280882966
