# .PCD v0.7 - Point Cloud Data file format
VERSION 0.7
FIELDS x y z rgb
SIZE 4 4 4 4
TYPE F F F U
COUNT 1 1 1 1
WIDTH 1367
HEIGHT 1
VIEWPOINT 0 0 0 1 0 0 0
POINTS 1367
DATA ascii
136.62018 1576.8367 761 4292411391
137.77798 1576.8367 761 4292411391
-40.844036 1576.1835 766 4282982682
-39.739449 1576.2844 767 4282981669
-38.51009 1576.1835 766 4282981669
-37.343121 1576.1835 766 4282981669
-36.119267 1576.0825 765 4282784034
-34.899082 1575.9817 764 4282717979
-33.735779 1575.9817 764 4282652186
-32.469727 1575.7798 762 4282781205
-31.458715 1576.0825 765 4282715412
-30.150459 1575.7798 762 4282847502
-29.082569 1575.9817 764 4282781453
-27.831192 1575.7798 762 4282650112
-26.67156 1575.7798 762 4283044866
125.0422 1575.679 761 4292804607
126.2 1575.679 761 4293132287
127.15596 1575.578 760 4293328895
128.31192 1575.578 760 4293394431
129.4679 1575.578 760 4292804607
130.62386 1575.578 760 4292935679
131.77982 1575.578 760 4293001215
133.14679 1575.679 761 4293132287
134.30458 1575.679 761 4293132287
135.46239 1575.679 761 4293066751
136.62018 1575.679 761 4292870143
137.55963 1575.578 760 4293197823
-40.844036 1575.0165 766 4282916889
-39.677063 1575.0165 766 4282982171
-38.51009 1575.0165 766 4282982171
-37.284405 1574.9175 765 4282915872
-36.062386 1574.8184 764 4282718492
-34.899082 1574.8184 764 4282783772
-33.629356 1574.6202 762 4282717979
-32.469727 1574.6202 762 4282651921
-31.310091 1574.6202 762 4282783506
-30.150459 1574.6202 762 4282783002
-28.990826 1574.6202 762 4282651673
-27.787155 1574.5211 761 4282586112
-26.629358 1574.5211 761 4282717698
-25.47156 1574.5211 761 4282914307
123.68807 1574.422 760 4293066751
124.84404 1574.422 760 4292542463
126 1574.422 760 4292870143
126.95413 1574.323 759 4292739071
128.31192 1574.422 760 4292739071
129.4679 1574.422 760 4292541695
130.41652 1574.323 759 4292607487
131.77982 1574.422 760 4292607487
132.93578 1574.422 760 4292804607
134.09174 1574.422 760 4292804607
135.24771 1574.422 760 4292739071
136.40367 1574.422 760 4292148479
137.55963 1574.422 760 4292607999
-39.677063 1573.8495 766 4282982669
-38.449543 1573.7523 765 4282982669
-37.284405 1573.7523 765 4282982171
-36.062386 1573.655 764 4282850329
-34.78899 1573.4606 762 4282717979
-33.629356 1573.4606 762 4282652186
-32.41835 1573.3633 761 4282783506
-31.26055 1573.3633 761 4282783506
-30.102753 1573.3633 761 4282980895
-28.944954 1573.3633 761 4282717979
-27.787155 1573.3633 761 4282651921
-26.587156 1573.2661 760 4282651921
-25.431192 1573.2661 760 4282848514
120.79816 1572.9744 757 4293394431
121.94862 1572.9744 757 4293328895
123.49174 1573.1688 759 4293394431
124.64587 1573.1688 759 4293066751
125.8 1573.1688 759 4293197823
126.7523 1573.0715 758 4292804607
127.90459 1573.0715 758 4292804607
129.05688 1573.0715 758 4292739071
130.20917 1573.0715 758 4292739071
131.57065 1573.1688 759 4292739071
132.93578 1573.2661 760 4292739071
133.87891 1573.1688 759 4292345855
135.24771 1573.2661 760 4292673535
136.40367 1573.2661 760 4293001215
-39.677063 1572.6826 766 4282982669
-38.449543 1572.5872 765 4283180047
-37.225689 1572.4917 764 4283048477
-35.948624 1572.3009 762 4282982684
-34.78899 1572.3009 762 4282980895
-33.576145 1572.2056 761 4282652186
-32.366974 1572.1101 760 4282718483
-31.21101 1572.1101 760 4282718483
-30.055046 1572.1101 760 4282718483
-28.899082 1572.1101 760 4282718483
-27.74312 1572.1101 760 4282784004
-26.587156 1572.1101 760 4282784004
-25.390825 1572.0146 759 4282784004
-24.236698 1572.0146 759 4282784004
-23.045872 1571.9193 758 4282455575
119.83853 1571.9193 758 4292935679
120.79816 1571.8239 757 4293066751
121.94862 1571.8239 757 4293001215
123.09908 1571.8239 757 4293132287
124.24954 1571.8239 757 4292935679
125.4 1571.8239 757 4293197823
126.55046 1571.8239 757 4292673535
127.70092 1571.8239 757 4292804607
128.85138 1571.8239 757 4293066751
130.00183 1571.8239 757 4293001215
131.36147 1571.9193 758 4292673535
132.72478 1572.0146 759 4292411391
133.87891 1572.0146 759 4291821567
135.03302 1572.0146 759 4292345855
-38.388992 1571.3285 764 4283704843
-37.108257 1571.1412 762 4283310600
-35.948624 1571.1412 762 4282981891
-34.733944 1571.0477 761 4282717979
-33.576145 1571.0477 761 4282652186
-32.366974 1570.9541 760 4282718483
-31.161469 1570.8606 759 4282586641
-30.055046 1570.9541 760 4282784004
-28.85321 1570.8606 759 4282784004
-27.699083 1570.8606 759 4282718981
-26.544954 1570.8606 759 4282653188
-25.390825 1570.8606 759 4282784004
-24.198166 1570.767 758 4282784004
-23.045872 1570.767 758 4282585374
119.83853 1570.767 758 4293066751
120.99083 1570.767 758 4293197823
121.94862 1570.6733 757 4293328895
123.09908 1570.6733 757 4293394431
123.85321 1570.4862 755 4293263359
125.4 1570.6733 757 4293525503
126.14679 1570.4862 755 4293066751
127.29358 1570.4862 755 4292935679
128.44037 1570.4862 755 4293001215
130.00183 1570.6733 757 4293001215
131.1523 1570.6733 757 4292804607
132.72478 1570.8606 759 4292542463
133.66606 1570.767 758 4292411391
-38.388992 1570.1652 764 4283902487
-37.108257 1569.9817 762 4283244303
-35.948624 1569.9817 762 4283047181
-34.733944 1569.8899 761 4282848532
-33.522934 1569.7982 760 4282848532
-32.315598 1569.7064 759 4282718483
-31.161469 1569.7064 759 4282718483
-30.007339 1569.7064 759 4282588678
-28.85321 1569.7064 759 4282588678
-27.699083 1569.7064 759 4282522131
-26.544954 1569.7064 759 4282456338
-25.350458 1569.6146 758 4282456338
-24.198166 1569.6146 758 4282522131
-23.045872 1569.6146 758 4282455834
-21.893578 1569.6146 758 4282324248
-20.741285 1569.6146 758 4282585357
119.26605 1569.3395 755 4292870143
120.79816 1569.5229 757 4293001215
121.55963 1569.3395 755 4293066751
122.70642 1569.3395 755 4293066751
123.85321 1569.3395 755 4292804607
125 1569.3395 755 4293001215
126.14679 1569.3395 755 4292935679
127.29358 1569.3395 755 4292935679
128.44037 1569.3395 755 4292280319
129.58716 1569.3395 755 4292607999
131.1523 1569.5229 757 4292870143
132.30275 1569.5229 757 4292739071
133.45322 1569.5229 757 4292083711
-38.267891 1568.822 762 4284034602
-37.108257 1568.822 762 4283244303
-35.891743 1568.7321 761 4283047181
-34.678898 1568.6422 760 4283045404
-33.522934 1568.6422 760 4283045404
-32.315598 1568.5522 759 4282718483
-31.111927 1568.4624 758 4282718483
-29.959633 1568.4624 758 4282718981
-28.807339 1568.4624 758 4282653188
-27.655046 1568.4624 758 4282390545
-26.502752 1568.4624 758 4282390545
-25.350458 1568.4624 758 4282456338
-24.159634 1568.3724 757 4282456338
-23.009174 1568.3724 757 4282651921
-21.858715 1568.3724 757 4282586128
-20.708258 1568.3724 757 4282585357
117.74129 1568.0128 753 4293394431
118.88441 1568.0128 753 4292935679
120.02752 1568.0128 753 4293132287
121.36514 1568.1028 754 4293001215
122.51009 1568.1028 754 4292935679
123.65504 1568.1028 754 4292935679
124.8 1568.1028 754 4293001215
125.94495 1568.1028 754 4293066751
127.0899 1568.1028 754 4293197823
128.23486 1568.1028 754 4292739071
129.58716 1568.1926 755 4292870143
130.73395 1568.1926 755 4293001215
132.30275 1568.3724 757 4292935679
133.45322 1568.3724 757 4292280319
-37.108257 1567.6624 762 4282915872
-35.891743 1567.5743 761 4282915872
-34.678898 1567.4862 760 4282980382
-33.469727 1567.3982 759 4282980382
-32.264221 1567.3101 758 4283045910
-31.111927 1567.3101 758 4283045910
-29.959633 1567.3101 758 4282784276
-28.761467 1567.222 757 4282784276
-27.61101 1567.222 757 4282651921
-26.46055 1567.222 757 4282586128
-25.310091 1567.222 757 4282455834
-24.159634 1567.222 757 4282455834
-22.93578 1567.0459 755 4282389782
-21.78899 1567.0459 755 4282389782
-20.642202 1567.0459 755 4282585109
-19.495413 1567.0459 755 4282716696
117.74129 1566.8698 753 4293132287
118.88441 1566.8698 753 4292411391
120.02752 1566.8698 753 4292739071
121.17064 1566.8698 753 4293132287
122.31376 1566.8698 753 4293066751
123.45688 1566.8698 753 4293066751
124.6 1566.8698 753 4293066751
125.74312 1566.8698 753 4293132287
126.88624 1566.8698 753 4293132287
128.23486 1566.9578 754 4292739071
129.37982 1566.9578 754 4292804607
130.73395 1567.0459 755 4292804351
131.88074 1567.0459 755 4293001215
-37.049541 1566.4165 761 4282849827
-35.834862 1566.3303 760 4282849827
-34.678898 1566.3303 760 4283111454
-33.469727 1566.244 759 4282914075
-32.264221 1566.1578 758 4283045910
-31.062386 1566.0715 757 4282914581
-29.911926 1566.0715 757 4282784276
-28.761467 1566.0715 757 4282784276
-27.61101 1566.0715 757 4282455834
-26.376146 1565.899 755 4282455834
-25.229359 1565.899 755 4282520868
-24.082569 1565.899 755 4282520868
-22.899082 1565.8129 754 4282323989
-21.754128 1565.8129 754 4282389782
-20.609175 1565.8129 754 4282585374
-19.46422 1565.8129 754 4282585374
116.41101 1565.6404 752 4293328895
117.55229 1565.6404 752 4293328895
118.69358 1565.6404 752 4292870143
119.83486 1565.6404 752 4293132287
120.97615 1565.6404 752 4293132287
122.31376 1565.7266 753 4293263359
123.25871 1565.6404 752 4293132287
124.4 1565.6404 752 4293066751
125.54128 1565.6404 752 4293132287
126.68257 1565.6404 752 4293132287
128.02936 1565.7266 753 4292804351
129.17247 1565.7266 753 4292804351
130.52477 1565.8129 754 4292804351
-36.93211 1565.09 759 4282981669
-34.623852 1565.09 759 4283242529
-33.416515 1565.0055 758 4283242529
-32.264221 1565.0055 758 4283307801
-31.062386 1564.9211 757 4283307801
-29.911926 1564.9211 757 4282915079
-28.669725 1564.7523 755 4282849286
-27.522936 1564.7523 755 4282783506
-26.333944 1564.6678 754 4282783506
-25.188992 1564.6678 754 4282783002
-24.044037 1564.6678 754 4282783002
-22.862385 1564.5835 753 4282456338
-21.719267 1564.5835 753 4282390545
-20.576147 1564.5835 753 4282585880
-19.46422 1564.6678 754 4282585880
-18.407339 1564.9211 757 4282650917
-17.25688 1564.9211 757 4282650917
115.0844 1564.4147 751 4293328895
116.41101 1564.499 752 4293394431
117.3633 1564.4147 751 4293394431
118.50275 1564.4147 751 4292870143
119.6422 1564.4147 751 4292935679
120.78165 1564.4147 751 4292804607
122.11743 1564.499 752 4293001215
123.06055 1564.4147 751 4293132287
124.2 1564.4147 751 4293197823
125.54128 1564.499 752 4292935679
126.68257 1564.499 752 4292935679
127.82385 1564.499 752 4292804351
129.17247 1564.5835 753 4292804351
130.3156 1564.5835 753 4292541695
-34.568806 1563.8533 758 4283112474
-33.416515 1563.8533 758 4282980887
-32.264221 1563.8533 758 4283047435
-31.062386 1563.7706 757 4282981385
-29.816513 1563.6055 755 4283112705
-28.669725 1563.6055 755 4282783744
-27.478899 1563.5229 754 4282783506
-26.333944 1563.5229 754 4282783506
-25.148624 1563.4404 753 4282651921
-24.005505 1563.4404 753 4282651921
-22.862385 1563.4404 753 4282587392
-21.719267 1563.4404 753 4282653184
-20.576147 1563.4404 753 4282651921
-19.433027 1563.4404 753 4282783506
-18.319265 1563.5229 754 4282781737
-17.201836 1563.6055 755 4282781737
112.62386 1563.1926 750 4293525503
113.76147 1563.1926 750 4293328895
114.89909 1563.1926 750 4293328895
116.22385 1563.2753 751 4293197823
117.17431 1563.1926 750 4293263359
118.31193 1563.1926 750 4293132287
119.44954 1563.1926 750 4293001215
120.58716 1563.1926 750 4292870143
121.9211 1563.2753 751 4293001215
123.06055 1563.2753 751 4293197823
124.2 1563.2753 751 4293197823
125.33945 1563.2753 751 4293001215
126.4789 1563.2753 751 4293001215
127.82385 1563.3578 752 4292673535
128.96513 1563.3578 752 4292870143
-33.416515 1562.7009 758 4282915872
-32.212845 1562.6202 757 4283047435
-30.963303 1562.4587 755 4283047435
-29.816513 1562.4587 755 4283046912
-28.623854 1562.3779 754 4282717952
-27.478899 1562.3779 754 4282651921
-26.291742 1562.2972 753 4282783506
-25.148624 1562.2972 753 4282783506
-24.005505 1562.2972 753 4282915092
-22.825687 1562.2166 752 4282718981
-21.684404 1562.2166 752 4282718981
-20.543119 1562.2166 752 4282456338
-19.401834 1562.2166 752 4282456338
-18.289907 1562.2972 753 4282782752
-17.14679 1562.2972 753 4282651423
108.85872 1561.8936 748 4293722111
113.76147 1562.0551 750 4293394431
114.89909 1562.0551 750 4293328895
116.0367 1562.0551 750 4293001215
116.98532 1561.9744 749 4293197823
118.1211 1561.9744 749 4293197823
119.25688 1561.9744 749 4293132287
120.39266 1561.9744 749 4292870143
121.72477 1562.0551 750 4292935679
122.86239 1562.0551 750 4292411391
124 1562.0551 750 4292739071
125.13761 1562.0551 750 4293001215
126.4789 1562.1357 751 4292935679
127.61835 1562.1357 751 4292345855
128.96513 1562.2166 752 4292542463
-32.212845 1561.4697 757 4282851083
-30.963303 1561.3119 755 4283114254
-29.816513 1561.3119 755 4282914816
-28.623854 1561.233 754 4282651648
-27.478899 1561.233 754 4282651921
-26.291742 1561.1542 753 4282520334
-25.148624 1561.1542 753 4282456338
-23.966972 1561.0752 752 4282456338
-22.825687 1561.0752 752 4282718981
-21.684404 1561.0752 752 4282653188
-20.510092 1560.9963 751 4282651921
-19.370642 1560.9963 751 4282651921
-18.26055 1561.0752 752 4282848016
-17.119267 1561.0752 752 4282913809
-15.952293 1560.9963 751 4282651921
108.85872 1560.7596 748 4293787647
111.30642 1560.8385 749 4293263359
112.4422 1560.8385 749 4293459967
113.57798 1560.8385 749 4293394431
114.71376 1560.8385 749 4293394431
115.84954 1560.8385 749 4293197823
116.98532 1560.8385 749 4293197823
117.93027 1560.7596 748 4293132287
119.25688 1560.8385 749 4293066751
120.39266 1560.8385 749 4292870143
121.52844 1560.8385 749 4293132287
122.66422 1560.8385 749 4293132287
124 1560.9175 750 4293263359
125.13761 1560.9175 750 4292870143
126.4789 1560.9963 751 4293001215
127.61835 1560.9963 751 4293132287
128.96513 1561.0752 752 4293066751
-32.212845 1560.3192 757 4282982171
-30.963303 1560.1652 755 4282982171
-29.816513 1560.1652 755 4282784774
-28.623854 1560.0881 754 4282653188
-27.478899 1560.0881 754 4282651921
-26.291742 1560.011 753 4282651921
-25.148624 1560.011 753 4282455834
-23.966972 1559.934 752 4282521883
-22.825687 1559.934 752 4282521883
-21.684404 1559.934 752 4282521883
-20.510092 1559.8569 751 4282783506
-19.370642 1559.8569 751 4282783506
-18.26055 1559.934 752 4282848282
-17.091743 1559.8569 751 4282848282
-15.952293 1559.8569 751 4282913555
-14.765138 1559.7028 749 4282913555
-13.629357 1559.7028 749 4282848514
106.07339 1559.3945 745 4293918719
108.85872 1559.6257 748 4293394431
109.99266 1559.6257 748 4293591039
111.1266 1559.6257 748 4293525503
112.26055 1559.6257 748 4293656575
113.39449 1559.6257 748 4293459967
114.52844 1559.6257 748 4293459967
115.66238 1559.6257 748 4293525503
116.79633 1559.6257 748 4293459967
117.93027 1559.6257 748 4293132287
119.06422 1559.6257 748 4293066751
120.19817 1559.6257 748 4292739071
121.52844 1559.7028 749 4292935679
122.66422 1559.7028 749 4292935679
123.8 1559.7028 749 4293001215
125.13761 1559.7798 750 4292345855
126.27523 1559.7798 750 4292804607
127.61835 1559.8569 751 4293197823
-30.963303 1559.0183 755 4282850079
-29.816513 1559.0183 755 4282915102
-28.623854 1558.9431 754 4282783772
-27.478899 1558.9431 754 4282455838
-26.291742 1558.8679 753 4282455838
-25.148624 1558.8679 753 4282455834
-23.966972 1558.7926 752 4282521883
-22.825687 1558.7926 752 4282521381
-21.649542 1558.7174 751 4282455332
-20.543119 1558.7926 752 4282585880
-19.401834 1558.7926 752 4282651673
-18.26055 1558.7926 752 4282783002
-17.119267 1558.7926 752 4282651673
-15.952293 1558.7174 751 4282783002
-14.765138 1558.567 749 4282848795
-13.629357 1558.567 749 4282784004
-12.493578 1558.567 749 4282586882
-11.357799 1558.567 749 4282586128
104.94495 1558.2661 745 4293918719
106.07339 1558.2661 745 4293656575
107.20184 1558.2661 745 4294049791
108.50642 1558.3413 746 4293853183
109.6367 1558.3413 746 4293787647
110.76698 1558.3413 746 4293394431
112.26055 1558.4917 748 4293722111
113.02752 1558.3413 746 4293722111
114.52844 1558.4917 748 4293787647
115.66238 1558.4917 748 4293591039
116.79633 1558.4917 748 4293591039
117.54862 1558.3413 746 4293263359
118.6789 1558.3413 746 4293459967
120.19817 1558.4917 748 4293132287
121.33211 1558.4917 748 4293132287
122.46606 1558.4917 748 4293132287
123.8 1558.567 749 4293394431
124.93578 1558.567 749 4292804607
126.27523 1558.6422 750 4293066751
-29.721102 1557.7247 753 4282653467
-28.577982 1557.7247 753 4282521881
-27.434862 1557.7247 753 4282521631
-26.291742 1557.7247 753 4282587424
-25.108257 1557.6514 752 4282587676
-23.966972 1557.6514 752 4282455834
-22.78899 1557.578 751 4282521381
-21.649542 1557.578 751 4282521381
-20.543119 1557.6514 752 4282455834
-19.401834 1557.6514 752 4282390041
-18.26055 1557.6514 752 4282717979
-17.091743 1557.578 751 4282717979
-15.926605 1557.5046 750 4282651673
-14.765138 1557.4312 749 4282848795
-13.629357 1557.4312 749 4282718483
-12.493578 1557.4312 749 4282586641
-11.357799 1557.4312 749 4282783506
-10.222018 1557.4312 749 4282651921
-9.0715599 1557.3578 748 4282913809
103.81651 1557.1376 745 4293591039
104.94495 1557.1376 745 4293328895
106.24587 1557.2111 746 4292739071
107.20184 1557.1376 745 4293328895
108.50642 1557.2111 746 4293722111
109.6367 1557.2111 746 4293591039
110.76698 1557.2111 746 4293263359
111.89725 1557.2111 746 4293722111
113.02752 1557.2111 746 4293525503
114.1578 1557.2111 746 4293591039
115.28807 1557.2111 746 4293459967
116.41835 1557.2111 746 4293263359
117.54862 1557.2111 746 4292870143
118.6789 1557.2111 746 4293132287
120.19817 1557.3578 748 4293132287
121.33211 1557.3578 748 4293132287
122.46606 1557.3578 748 4293132287
123.6 1557.3578 748 4293197823
124.73395 1557.3578 748 4292804607
-28.53211 1556.5101 752 4282455838
-27.434862 1556.5817 753 4282455838
-26.291742 1556.5817 753 4282587424
-25.108257 1556.5101 752 4282586882
-23.966972 1556.5101 752 4282586882
-22.78899 1556.4385 751 4282521381
-21.649542 1556.4385 751 4282521381
-20.510092 1556.4385 751 4282653467
-19.370642 1556.4385 751 4282653467
-18.231194 1556.4385 751 4282717979
-17.06422 1556.3669 750 4282717979
-15.900917 1556.2954 749 4282783506
-14.765138 1556.2954 749 4282849299
-13.629357 1556.2954 749 4282651921
-12.473394 1556.2239 748 4282651921
-11.357799 1556.2954 749 4282522131
-10.205504 1556.2239 748 4282456338
-9.0715599 1556.2239 748 4282783002
-7.9376144 1556.2239 748 4282651673
103.81651 1556.0092 745 4293984255
104.94495 1556.0092 745 4293984255
106.07339 1556.0092 745 4293656575
107.02752 1555.9376 744 4293853183
108.33028 1556.0092 745 4293918719
109.45872 1556.0092 745 4293853183
110.58716 1556.0092 745 4293853183
111.89725 1556.0807 746 4294311935
112.84404 1556.0092 745 4294049791
114.1578 1556.0807 746 4294049791
115.28807 1556.0807 746 4293459967
116.41835 1556.0807 746 4293263359
117.3578 1556.0092 745 4292804607
118.6789 1556.0807 746 4293394431
119.80917 1556.0807 746 4293591039
120.93945 1556.0807 746 4293591039
122.06973 1556.0807 746 4293394431
123.6 1556.2239 748 4293394431
-27.390825 1555.3688 752 4282587174
-26.249542 1555.3688 752 4282587174
-25.108257 1555.3688 752 4282784276
-23.966972 1555.3688 752 4282652434
-22.825687 1555.3688 752 4281796123
-21.649542 1555.2991 751 4282454053
-20.510092 1555.2991 751 4282915102
-19.370642 1555.2991 751 4283046944
-18.201836 1555.2294 750 4282850329
-17.06422 1555.2294 750 4282784535
-15.900917 1555.1597 749 4282784276
-14.741284 1555.09 748 4282718483
-13.60734 1555.09 748 4282848514
-12.473394 1555.09 748 4282980356
-11.357799 1555.1597 749 4282717979
-10.205504 1555.09 748 4282783772
-9.0715599 1555.09 748 4282783002
-7.9119267 1554.9504 746 4282783002
-6.7816515 1554.9504 746 4282651921
102.5211 1554.811 744 4293918719
103.64771 1554.811 744 4292804607
104.60367 1554.7413 743 4293132287
105.90092 1554.811 744 4293656575
107.02752 1554.811 744 4293787647
108.15413 1554.811 744 4293918719
109.28073 1554.811 744 4293853183
110.40734 1554.811 744 4293853183
111.53394 1554.811 744 4293918719
112.66055 1554.811 744 4293328895
113.97248 1554.8807 745 4293394431
115.10091 1554.8807 745 4293328895
116.22935 1554.8807 745 4293328895
117.3578 1554.8807 745 4292411391
118.48624 1554.8807 745 4292935679
119.80917 1554.9504 746 4293132287
120.74312 1554.8807 745 4293066751
122.06973 1554.9504 746 4292935679
-27.346788 1554.1597 751 4282720055
-26.20734 1554.1597 751 4282522676
-25.108257 1554.2275 752 4282983197
-23.966972 1554.2275 752 4283312419
-22.78899 1554.1597 751 4282917423
-21.649542 1554.1597 751 4282522665
-20.510092 1554.1597 751 4282194713
-19.370642 1554.1597 751 4281602576
-18.201836 1554.0918 750 4282061067
-17.036697 1554.0238 749 4282455825
-15.875229 1553.9559 748 4282916359
-14.741284 1553.9559 748 4282916359
-13.60734 1553.9559 748 4282784512
-12.473394 1553.9559 748 4282784512
-11.33945 1553.9559 748 4282587676
-10.205504 1553.9559 748 4282455834
-9.042202 1553.8202 746 4282782752
-7.9119267 1553.8202 746 4282782752
-6.7816515 1553.8202 746 4282586112
-5.6513762 1553.8202 746 4282783491
99.941284 1553.5486 742 4294508543
101.22935 1553.6165 743 4293722111
102.35413 1553.6165 743 4293787647
103.4789 1553.6165 743 4293394431
104.60367 1553.6165 743 4293394431
105.72844 1553.6165 743 4293591039
106.85321 1553.6165 743 4293722111
108.15413 1553.6844 744 4293853183
109.10275 1553.6165 743 4293853183
110.22752 1553.6165 743 4293853183
111.35229 1553.6165 743 4293853183
112.47707 1553.6165 743 4293591039
113.78716 1553.6844 744 4293656575
114.91376 1553.6844 744 4293853183
116.04037 1553.6844 744 4294377471
116.97615 1553.6165 743 4293853183
118.29358 1553.6844 744 4293787647
119.61468 1553.7523 745 4293263359
120.54679 1553.6844 744 4293263359
-23.92844 1553.0201 751 4283247126
-22.752293 1552.9541 750 4284434507
-21.614679 1552.9541 750 4284566093
-20.477064 1552.9541 750 4284303659
-19.339449 1552.9541 750 4283711522
-18.172478 1552.8881 749 4281343015
-17.009174 1552.822 748 4281014050
-15.875229 1552.822 748 4282522885
-14.741284 1552.822 748 4282654471
-13.563303 1552.6899 746 4282588678
-12.433027 1552.6899 746 4282588678
-11.302752 1552.6899 746 4282587174
-10.172477 1552.6899 746 4282521381
-9.042202 1552.6899 746 4282651423
-7.8990827 1552.6239 745 4282782752
-6.7706423 1552.6239 745 4282651921
-5.6422019 1552.6239 745 4282783506
98.495415 1552.2936 740 4294311935
99.777985 1552.3596 741 4293853183
101.06422 1552.4257 742 4293132287
102.18716 1552.4257 742 4293591039
103.31009 1552.4257 742 4293656575
104.43303 1552.4257 742 4293591039
105.72844 1552.4917 743 4293918719
106.85321 1552.4917 743 4293853183
107.97798 1552.4917 743 4293328895
109.10275 1552.4917 743 4293656575
110.04771 1552.4257 742 4293722111
111.35229 1552.4917 743 4293853183
112.47707 1552.4917 743 4293656575
113.60184 1552.4917 743 4293591039
114.72661 1552.4917 743 4292870143
115.85138 1552.4917 743 4293525503
116.97615 1552.4917 743 4293394431
118.10091 1552.4917 743 4293328895
119.22569 1552.4917 743 4292673535
120.15413 1552.4257 742 4293132287
-22.715597 1551.7523 749 4284301122
-21.579817 1551.7523 749 4288182909
-20.444036 1551.7523 749 4287524645
-19.339449 1551.8165 750 4287919403
-18.172478 1551.7523 749 4285156427
-17.009174 1551.6881 748 4280682759
-15.875229 1551.6881 748 4282259200
-14.741284 1551.6881 748 4282785541
-13.563303 1551.5596 746 4282588678
-12.433027 1551.5596 746 4282785800
-11.302752 1551.5596 746 4282784047
-10.155963 1551.4954 745 4282455082
-9.027523 1551.4954 745 4282782752
-7.8990827 1551.4954 745 4282782752
-6.7596331 1551.4312 744 4282783002
-5.6330276 1551.4312 744 4282848795
-4.506422 1551.4312 744 4282718483
-3.3798165 1551.4312 744 4282784276
97.216515 1551.1101 739 4294967295
98.495415 1551.1743 740 4294443007
99.777985 1551.2385 741 4294115327
100.89909 1551.2385 741 4293722111
102.18716 1551.3027 742 4294049791
103.14128 1551.2385 741 4293918719
104.26238 1551.2385 741 4293853183
105.38348 1551.2385 741 4293722111
106.6789 1551.3027 742 4293984255
107.80183 1551.3027 742 4294115327
108.92477 1551.3027 742 4294311935
109.86789 1551.2385 741 4293918719
111.17064 1551.3027 742 4293918719
112.29358 1551.3027 742 4293591039
113.60184 1551.3669 743 4293525503
114.53945 1551.3027 742 4293394431
115.85138 1551.3669 743 4293853183
116.78532 1551.3027 742 4293394431
117.90826 1551.3027 742 4293263359
-19.308256 1550.6165 749 4286273099
-18.14312 1550.5541 748 4286074469
-17.009174 1550.5541 748 4281797924
-15.875229 1550.5541 748 4282125840
-14.693578 1550.4293 746 4282717977
-13.563303 1550.4293 746 4282784004
-12.412844 1550.3669 745 4282849797
-11.302752 1550.4293 746 4282913825
-10.155963 1550.3669 745 4282913825
-9.0128441 1550.3046 744 4282848282
-7.8862386 1550.3046 744 4282848282
-6.7596331 1550.3046 744 4282718483
-5.6330276 1550.3046 744 4282652434
-4.506422 1550.3046 744 4282784276
-3.3798165 1550.3046 744 4282784276
-2.2495413 1550.2422 743 4282784276
-1.1266055 1550.3046 744 4282915605
0 1550.2422 743 4282784797
93.710091 1549.9303 738 4286159839
94.825691 1549.9303 738 4293328895
95.941284 1549.9303 738 4294246399
97.216515 1549.9927 739 4293787647
98.333946 1549.9927 739 4293394431
99.614677 1550.0551 740 4293656575
100.73395 1550.0551 740 4293591039
102.02018 1550.1174 741 4293722111
102.97248 1550.0551 740 4293984255
104.26238 1550.1174 741 4293918719
105.38348 1550.1174 741 4293132287
106.50459 1550.1174 741 4293853183
107.62569 1550.1174 741 4294246399
108.74679 1550.1174 741 4294115327
109.86789 1550.1174 741 4293722111
110.98899 1550.1174 741 4293787647
112.29358 1550.1798 742 4293328895
113.41651 1550.1798 742 4293459967
114.53945 1550.1798 742 4293459967
115.66238 1550.1798 742 4293525503
116.5945 1550.1174 741 4292804607
-19.277063 1549.4202 748 4283702585
-18.14312 1549.4202 748 4282982966
-17.009174 1549.4202 748 4281798435
-15.875229 1549.4202 748 4282389028
-14.693578 1549.2991 746 4282454821
-13.563303 1549.2991 746 4282652675
-12.412844 1549.2385 745 4282849797
-11.284404 1549.2385 745 4282783002
-10.139449 1549.178 744 4282783002
-9.0128441 1549.178 744 4282783002
-7.8862386 1549.178 744 4282848795
-6.7596331 1549.178 744 4282783002
-5.6330276 1549.178 744 4282783002
-4.506422 1549.178 744 4282849284
-3.3798165 1549.178 744 4283046662
-2.253211 1549.178 744 4282785303
-1.1266055 1549.178 744 4282785303
0 1549.178 744 4282719524
1.1266055 1549.178 744 4282653731
88.277061 1548.8752 739 4283311674
89.394493 1548.8752 739 4283777106
90.363304 1548.8147 738 4286211448
91.478897 1548.8147 738 4283852946
92.594498 1548.8147 738 4289379558
93.555962 1548.7542 737 4289451007
94.825691 1548.8147 738 4293394431
95.941284 1548.8147 738 4294508543
97.056877 1548.8147 738 4293918719
98.333946 1548.8752 739 4293853183
99.614677 1548.9358 740 4294180863
100.73395 1548.9358 740 4293853183
101.85321 1548.9358 740 4293722111
102.97248 1548.9358 740 4293918719
104.09174 1548.9358 740 4294246399
105.21101 1548.9358 740 4293591039
106.33028 1548.9358 740 4293984255
107.62569 1548.9963 741 4294115327
108.56881 1548.9358 740 4293853183
109.86789 1548.9963 741 4293722111
110.98899 1548.9963 741 4294115327
112.11009 1548.9963 741 4294180863
113.23119 1548.9963 741 4294180863
114.35229 1548.9963 741 4293722111
115.4734 1548.9963 741 4293525503
116.40367 1548.9358 740 4293001215
-18.172478 1548.345 749 4282063658
-17.009174 1548.2863 748 4281866279
-15.875229 1548.2863 748 4282260006
-14.693578 1548.1688 746 4282260006
-13.541285 1548.1101 745 4282587924
-12.39266 1548.0514 744 4282653717
-11.266055 1548.0514 744 4282783772
-10.139449 1548.0514 744 4282783772
-8.9981651 1547.9927 743 4282915102
-7.8733945 1547.9927 743 4282717979
-6.7486238 1547.9927 743 4282914075
-5.6238532 1547.9927 743 4282848282
-4.4990826 1547.9927 743 4282783772
-3.3743119 1547.9927 743 4282783772
-2.2495413 1547.9927 743 4282784797
-1.1247706 1547.9927 743 4282850846
0 1547.934 742 4282719524
1.1229358 1547.934 742 4282719524
2.2458715 1547.934 742 4282719774
3.3688073 1547.934 742 4282653981
88.132111 1547.6991 738 4282395203
89.247704 1547.6991 738 4283977050
90.214676 1547.6404 737 4286082426
91.328438 1547.6404 737 4284907950
92.4422 1547.6404 737 4291487231
93.710091 1547.6991 738 4292017407
94.825691 1547.6991 738 4293459967
95.941284 1547.6991 738 4294180863
97.056877 1547.6991 738 4293853183
98.172478 1547.6991 738 4293656575
99.451378 1547.7578 739 4293853183
100.56881 1547.7578 739 4293656575
101.68624 1547.7578 739 4293656575
102.80367 1547.7578 739 4293853183
104.09174 1547.8165 740 4293918719
105.21101 1547.8165 740 4293394431
106.33028 1547.8165 740 4293722111
107.44954 1547.8165 740 4293328895
108.56881 1547.8165 740 4293263359
109.68807 1547.8165 740 4293394431
110.98899 1547.8752 741 4293591039
112.11009 1547.8752 741 4293918719
113.23119 1547.8752 741 4293853183
114.35229 1547.8752 741 4293722111
115.4734 1547.8752 741 4293591039
-17.009174 1547.1523 748 4282587424
-15.875229 1547.1523 748 4282521631
-14.669724 1546.9817 745 4282521631
-13.519266 1546.9248 744 4282521883
-12.39266 1546.9248 744 4282521883
-11.266055 1546.9248 744 4282653467
-10.139449 1546.9248 744 4282653467
-8.9981651 1546.8679 743 4282783002
-7.8733945 1546.8679 743 4282783002
-6.7486238 1546.8679 743 4282717979
-5.6146789 1546.811 742 4282717979
-4.4990826 1546.8679 743 4282783520
-3.3688073 1546.811 742 4282717727
-2.2458715 1546.811 742 4282784797
-1.1211009 1546.7542 741 4282850846
0 1546.6973 740 4282719774
1.119266 1546.6973 740 4282719774
2.2422018 1546.7542 741 4282719774
3.3577981 1546.6973 740 4282653981
4.4770641 1546.6973 740 4282653717
5.5963302 1546.6973 740 4282785303
85.900917 1546.5835 738 4284759884
86.873398 1546.5266 737 4285290857
87.98716 1546.5266 737 4286935938
89.100914 1546.5266 737 4286018684
90.066055 1546.4697 736 4288189596
91.328438 1546.5266 737 4285964287
92.4422 1546.5266 737 4292673535
93.555962 1546.5266 737 4294967295
94.669724 1546.5266 737 4294967295
95.941284 1546.5835 738 4294180863
97.056877 1546.5835 738 4294115327
98.172478 1546.5835 738 4294115327
99.451378 1546.6404 739 4294311935
100.56881 1546.6404 739 4294115327
101.68624 1546.6404 739 4294246399
102.80367 1546.6404 739 4294049791
103.9211 1546.6404 739 4293918719
105.03853 1546.6404 739 4293656575
106.15596 1546.6404 739 4294115327
107.27339 1546.6404 739 4293656575
108.39082 1546.6404 739 4293591039
109.68807 1546.6973 740 4293656575
110.80734 1546.6973 740 4293525503
113.23119 1546.7542 741 4293656575
114.16514 1546.6973 740 4293591039
-14.645871 1545.7982 744 4282389789
-13.497248 1545.7432 743 4282521631
-12.372478 1545.7432 743 4282784547
-11.247706 1545.7432 743 4282784797
-10.122936 1545.7432 743 4282784797
-8.9981651 1545.7432 743 4282784797
-7.8733945 1545.7432 743 4282653467
-6.7376146 1545.6881 742 4282980899
-5.6146789 1545.6881 742 4282980899
-4.4917431 1545.6881 742 4282915106
-3.3688073 1545.6881 742 4282915106
-2.2422018 1545.6331 741 4282784547
-1.1211009 1545.6331 741 4282850340
0 1545.5229 739 4282719774
1.1174312 1545.5229 739 4282719774
2.2385321 1545.578 740 4282720026
3.3522935 1545.5229 739 4282654233
4.4697247 1545.5229 739 4282785303
5.5871558 1545.5229 739 4282785303
6.704587 1545.5229 739 4282850329
7.8091745 1545.4679 738 4282521620
8.9247704 1545.4679 738 4282783002
10.023853 1545.4128 737 4282914588
83.394493 1545.3578 736 4283638842
84.506424 1545.3578 736 4282724432
85.618347 1545.3578 736 4284303464
86.730278 1545.3578 736 4285816673
87.842201 1545.3578 736 4287461499
88.954132 1545.3578 736 4286086049
90.066055 1545.3578 736 4289902042
91.177979 1545.3578 736 4289975551
92.289909 1545.3578 736 4293525503
93.401833 1545.3578 736 4294639615
94.669724 1545.4128 737 4294443007
95.783485 1545.4128 737 4293263359
96.897247 1545.4128 737 4293263359
98.172478 1545.4679 738 4293591039
99.288071 1545.4679 738 4293787647
100.40367 1545.4679 738 4293263359
101.51926 1545.4679 738 4293591039
102.80367 1545.5229 739 4293722111
103.9211 1545.5229 739 4293591039
105.03853 1545.5229 739 4293001215
106.15596 1545.5229 739 4293459967
107.27339 1545.5229 739 4293591039
108.39082 1545.5229 739 4293853183
109.68807 1545.578 740 4294115327
110.80734 1545.578 740 4293853183
-13.497248 1544.6184 743 4282587424
-12.352294 1544.5652 742 4282521631
-11.247706 1544.6184 743 4282784797
-10.122936 1544.6184 743 4282784797
-8.9981651 1544.6184 743 4282784547
-7.8733945 1544.6184 743 4282850340
-6.7376146 1544.5652 742 4282849827
-5.6146789 1544.5652 742 4282849827
-4.4917431 1544.5652 742 4282850090
-3.3688073 1544.5652 742 4282652968
-2.2385321 1544.4587 740 4282914600
-1.119266 1544.4587 740 4282980393
0 1544.4055 739 4282915102
1.1155963 1544.3523 738 4282980895
2.2348623 1544.4055 739 4282784797
3.3467889 1544.3523 738 4282784797
4.4623852 1544.3523 738 4282850329
5.5779815 1544.3523 738 4282916378
6.6935778 1544.3523 738 4282916378
7.8091745 1544.3523 738 4282718742
8.9247704 1544.3523 738 4282587424
10.023853 1544.2991 737 4282587424
11.137614 1544.2991 737 4282783520
12.231193 1544.2458 736 4282717727
13.34312 1544.2458 736 4282783002
76.849541 1544.2991 737 4287391631
77.834862 1544.2458 736 4286933119
81.170639 1544.2458 736 4283310675
82.28257 1544.2458 736 4283642175
83.394493 1544.2458 736 4286405480
84.506424 1544.2458 736 4286935438
85.618347 1544.2458 736 4287593112
86.730278 1544.2458 736 4286347103
87.552292 1544.1394 734 4287136363
88.954132 1544.2458 736 4284711907
90.066055 1544.2458 736 4292475391
91.177979 1544.2458 736 4294967295
92.289909 1544.2458 736 4294967295
93.401833 1544.2458 736 4294443007
94.513763 1544.2458 736 4294443007
95.783485 1544.2991 737 4293984255
96.897247 1544.2991 737 4293853183
98.172478 1544.3523 738 4293591039
99.288071 1544.3523 738 4294180863
100.40367 1544.3523 738 4293787647
101.51926 1544.3523 738 4293787647
102.63486 1544.3523 738 4293853183
103.75046 1544.3523 738 4293853183
104.86606 1544.3523 738 4292935679
105.98165 1544.3523 738 4293459967
107.09724 1544.3523 738 4294115327
108.21284 1544.3523 738 4294115327
109.32844 1544.3523 738 4294115327
-12.33211 1543.3909 741 4282587676
-11.229358 1543.4423 742 4282455838
-10.106422 1543.4423 742 4282587424
-8.9834862 1543.4423 742 4282587424
-7.8605504 1543.4423 742 4282784547
-6.7376146 1543.4423 742 4282915876
-5.6146789 1543.4423 742 4282915876
-4.4917431 1543.4423 742 4282849840
-3.3688073 1543.4423 742 4282849840
-2.2385321 1543.3395 740 4282784815
-1.119266 1543.3395 740 4282719022
0 1543.2881 739 4282849827
1.1155963 1543.2367 738 4282849827
2.2311926 1543.2367 738 4282785303
3.3467889 1543.2367 738 4282785303
4.4623852 1543.2367 738 4282850329
5.5779815 1543.2367 738 4282916378
6.6935778 1543.2367 738 4282849827
7.8091745 1543.2367 738 4282784034
8.9247704 1543.2367 738 4282587676
10.040367 1543.2367 738 4282587676
11.137614 1543.1853 737 4282783520
12.231193 1543.1339 736 4282783520
13.34312 1543.1339 736 4282718981
14.407339 1543.0312 734 4282916359
15.566973 1543.1339 736 4282458888
16.623854 1543.0312 734 4282195717
17.732111 1543.0312 734 4282392341
18.840366 1543.0312 734 4282392341
73.144951 1543.0312 734 4282981939
74.253212 1543.0312 734 4286403432
75.611008 1543.1339 736 4289101504
76.722939 1543.1339 736 4287588265
77.57798 1543.0312 734 4286539910
78.946793 1543.1339 736 4283052882
79.794495 1543.0312 734 4281799980
80.902756 1543.0312 734 4282984510
82.011009 1543.0312 734 4284499798
83.119263 1543.0312 734 4286276209
84.227524 1543.0312 734 4286737540
85.335777 1543.0312 734 4287592848
86.444038 1543.0312 734 4285560970
87.552292 1543.0312 734 4287797932
88.954132 1543.1339 736 4288658431
90.066055 1543.1339 736 4293132287
91.177979 1543.1339 736 4294443007
92.289909 1543.1339 736 4294180863
93.401833 1543.1339 736 4293918719
94.513763 1543.1339 736 4294049791
95.625687 1543.1339 736 4293984255
96.897247 1543.1853 737 4293853183
98.011009 1543.1853 737 4292935679
99.124771 1543.1853 737 4293525503
100.40367 1543.2367 738 4294115327
101.51926 1543.2367 738 4294180863
102.63486 1543.2367 738 4293918719
103.75046 1543.2367 738 4293722111
104.69358 1543.1853 737 4292673535
105.80734 1543.1853 737 4293459967
107.09724 1543.2367 738 4294049791
108.21284 1543.2367 738 4293918719
109.32844 1543.2367 738 4293263359
-8.9834862 1542.3192 742 4282587424
-7.8605504 1542.3192 742 4282521631
-6.7376146 1542.3192 742 4282914600
-5.6146789 1542.3192 742 4283046442
-4.4844036 1542.2698 741 4282784047
-3.3633027 1542.2698 741 4282981426
-2.2385321 1542.2202 740 4282981438
-1.119266 1542.2202 740 4282784315
0 1542.1707 739 4282850090
1.1155963 1542.1211 738 4282784297
2.2311926 1542.1211 738 4282785303
3.3467889 1542.1211 738 4282587924
4.4623852 1542.1211 738 4282784004
5.5779815 1542.1211 738 4282981639
6.6935778 1542.1211 738 4282849827
7.7963305 1542.0715 737 4282849827
8.9100914 1542.0715 737 4282850329
10.023853 1542.0715 737 4282718742
11.137614 1542.0715 737 4282915102
12.231193 1542.022 736 4282717979
13.34312 1542.022 736 4282915072
14.407339 1541.923 734 4283046656
15.515596 1541.923 734 4282588678
16.623854 1541.923 734 4282588678
17.732111 1541.923 734 4282785800
18.840366 1541.923 734 4282785800
19.948624 1541.923 734 4282784789
21.056881 1541.923 734 4282784789
22.165138 1541.923 734 4282784789
23.234863 1541.8734 733 4282718740
64.172478 1541.8734 733 4281532435
65.2789 1541.8734 733 4281466898
66.385323 1541.8734 733 4280877056
67.491745 1541.8734 733 4280483840
68.711929 1541.923 734 4280418332
69.70459 1541.8734 733 4285679725
70.811012 1541.8734 733 4288778876
72.036697 1541.923 734 4290292115
73.144951 1541.923 734 4289503409
74.130272 1541.8734 733 4289963960
75.361465 1541.923 734 4287265485
76.469727 1541.923 734 4283318161
77.57798 1541.923 734 4282990154
78.686241 1541.923 734 4283516499
79.794495 1541.923 734 4285290327
80.768806 1541.8734 733 4287001202
82.011009 1541.923 734 4287526542
83.119263 1541.923 734 4287789458
84.227524 1541.923 734 4286017133
85.335777 1541.923 734 4286346098
86.444038 1541.923 734 4285436091
87.552292 1541.923 734 4292541695
88.954132 1542.022 736 4294967295
89.768806 1541.923 734 4294967295
90.877068 1541.923 734 4294180863
91.985321 1541.923 734 4293918719
93.093575 1541.923 734 4293853183
94.201836 1541.923 734 4293853183
95.625687 1542.022 736 4293853183
96.737617 1542.022 736 4293722111
97.849541 1542.022 736 4293394431
99.124771 1542.0715 737 4293853183
100.23853 1542.0715 737 4294049791
101.35229 1542.0715 737 4294115327
102.46606 1542.0715 737 4294049791
103.57982 1542.0715 737 4293853183
104.5211 1542.022 736 4293263359
105.63303 1542.022 736 4293918719
106.74496 1542.022 736 4293853183
107.85688 1542.022 736 4293787647
-6.7266054 1541.1487 741 4282587424
-5.6055045 1541.1487 741 4282850340
-4.4844036 1541.1487 741 4282784797
-3.3633027 1541.1487 741 4282982432
-2.2385321 1541.101 740 4282720305
-1.119266 1541.101 740 4282720305
0 1541.0055 738 4282785317
1.1155963 1541.0055 738 4282719524
2.2311926 1541.0055 738 4282915872
3.3467889 1541.0055 738 4282981921
4.4623852 1541.0055 738 4282915876
5.5779815 1541.0055 738 4282915876
6.682569 1540.9578 737 4282982182
7.7963305 1540.9578 737 4282916389
8.9100914 1540.9578 737 4282980895
10.023853 1540.9578 737 4282717979
11.119267 1540.91 736 4283044652
12.231193 1540.91 736 4283044652
13.34312 1540.91 736 4282914581
14.407339 1540.8147 734 4282914581
15.515596 1540.8147 734 4282784276
16.623854 1540.8147 734 4282981399
17.732111 1540.8147 734 4282785303
18.809174 1540.767 733 4282851096
19.948624 1540.8147 734 4282719774
21.022018 1540.767 733 4282653981
22.128441 1540.767 733 4282850079
23.234863 1540.767 733 4282850079
24.341284 1540.767 733 4283045404
25.447706 1540.767 733 4283045404
34.128441 1540.6239 730 4282784535
61.959633 1540.767 733 4282453524
63.066055 1540.767 733 4281532422
64.172478 1540.767 733 4280942592
65.2789 1540.767 733 4282388483
66.385323 1540.767 733 4281601131
67.491745 1540.767 733 4282324598
68.598167 1540.767 733 4283384188
69.70459 1540.767 733 4285950116
70.811012 1540.767 733 4288714427
71.917435 1540.767 733 4288385206
73.023849 1540.767 733 4287404713
74.130272 1540.767 733 4286878113
75.236694 1540.767 733 4282081427
76.343117 1540.767 733 4280371066
77.449539 1540.767 733 4281217857
78.555962 1540.767 733 4282862426
79.662384 1540.767 733 4286078826
80.768806 1540.767 733 4287789700
81.875229 1540.767 733 4287395967
83.119263 1540.8147 734 4287330174
84.088074 1540.767 733 4285427585
85.194496 1540.767 733 4286809238
86.444038 1540.8147 734 4287344118
87.407341 1540.767 733 4292607487
88.660553 1540.8147 734 4294180863
89.768806 1540.8147 734 4293918719
90.877068 1540.8147 734 4293394431
91.985321 1540.8147 734 4293525503
93.093575 1540.8147 734 4293722111
94.201836 1540.8147 734 4293787647
95.310089 1540.8147 734 4293918719
96.41835 1540.8147 734 4293853183
97.526604 1540.8147 734 4293591039
98.634865 1540.8147 734 4293722111
99.743118 1540.8147 734 4293722111
100.85138 1540.8147 734 4294049791
101.95963 1540.8147 734 4293722111
102.89725 1540.767 733 4293591039
104.00367 1540.767 733 4293132287
105.11009 1540.767 733 4293591039
-6.7155962 1539.9817 740 4282587676
-5.6055045 1540.0275 741 4282653470
-4.4770641 1539.9817 740 4282457092
-3.3577981 1539.9817 740 4282851850
-2.2385321 1539.9817 740 4282785317
-1.119266 1539.9817 740 4282719524
0 1539.8899 738 4282719524
1.1155963 1539.8899 738 4282785317
2.2311926 1539.8899 738 4282785317
3.3467889 1539.8899 738 4282785317
4.4623852 1539.8899 738 4283047737
5.5779815 1539.8899 738 4282850358
6.682569 1539.844 737 4282654764
7.7963305 1539.844 737 4282523178
8.9100914 1539.844 737 4282784547
10.023853 1539.844 737 4282784547
11.119267 1539.7982 736 4282915131
12.231193 1539.7982 736 4282652216
13.34312 1539.7982 736 4282915106
14.407339 1539.7064 734 4282980899
15.515596 1539.7064 734 4282915102
16.623854 1539.7064 734 4282783772
17.732111 1539.7064 734 4282783772
18.809174 1539.6605 733 4282980895
19.915596 1539.6605 733 4282849827
21.022018 1539.6605 733 4282849827
22.128441 1539.6605 733 4282719524
23.234863 1539.6605 733 4282719524
24.341284 1539.6605 733 4282915106
25.447706 1539.6605 733 4282783520
26.554129 1539.6605 733 4282784789
27.660551 1539.6605 733 4282850583
28.766972 1539.6605 733 4282783772
29.873394 1539.6605 733 4282915102
30.979816 1539.6605 733 4282916378
31.979816 1539.5688 731 4282850329
33.082569 1539.5688 731 4282653467
34.185322 1539.5688 731 4282587674
35.229359 1539.5229 730 4282784797
36.330276 1539.5229 730 4282784797
61.85688 1539.6146 732 4279369763
62.961468 1539.6146 732 4283970665
64.066055 1539.6146 732 4288578860
65.170639 1539.6146 732 4290816079
66.27523 1539.6146 732 4290160881
67.379814 1539.6146 732 4290029295
68.484406 1539.6146 732 4289899760
69.588989 1539.6146 732 4289373416
70.693581 1539.6146 732 4283259585
71.798164 1539.6146 732 4280562072
72.902756 1539.6146 732 4280630108
74.130272 1539.6605 733 4280695901
75.236694 1539.6605 733 4283256141
76.343117 1539.6605 733 4285229931
77.449539 1539.6605 733 4286411141
78.555962 1539.6605 733 4286937485
79.662384 1539.6605 733 4287395969
80.768806 1539.6605 733 4287330176
81.875229 1539.6605 733 4286016088
82.981651 1539.6605 733 4286871397
84.088074 1539.6605 733 4285369281
85.194496 1539.6605 733 4292211711
86.300919 1539.6605 733 4294508543
87.407341 1539.6605 733 4294967295
88.660553 1539.7064 734 4294574079
89.768806 1539.7064 734 4294574079
90.877068 1539.7064 734 4294246399
91.985321 1539.7064 734 4294377471
93.093575 1539.7064 734 4293984255
94.201836 1539.7064 734 4294246399
95.310089 1539.7064 734 4294115327
96.41835 1539.7064 734 4293984255
97.526604 1539.7064 734 4294115327
98.471558 1539.6605 733 4294115327
99.57798 1539.6605 733 4294115327
100.85138 1539.7064 734 4294574079
101.95963 1539.7064 734 4293722111
103.06789 1539.7064 734 4293656575
108.66055 1540.899 760 4293984255
109.99083 1540.9449 761 4294180863
-4.4770641 1538.8624 740 4282785303
-3.3577981 1538.8624 740 4282851096
-2.2385321 1538.8624 740 4282589221
-1.119266 1538.8624 740 4282523428
0 1538.8184 739 4282719524
1.1155963 1538.7743 738 4282785317
2.2311926 1538.7743 738 4282785317
3.3467889 1538.7743 738 4282785317
4.4623852 1538.7743 738 4282588971
5.5779815 1538.7743 738 4282588971
6.682569 1538.7302 737 4282262053
7.7834864 1538.6863 736 4282196260
8.8954124 1538.6863 736 4282391842
10.007339 1538.6863 736 4282523428
11.119267 1538.6863 736 4282783795
12.231193 1538.6863 736 4282783795
13.299083 1538.5981 734 4282850090
14.407339 1538.5981 734 4282784297
15.515596 1538.5981 734 4282849577
16.623854 1538.5981 734 4282849577
17.732111 1538.5981 734 4282915106
18.809174 1538.5541 733 4282980899
19.915596 1538.5541 733 4282784047
21.022018 1538.5541 733 4282652718
22.128441 1538.5541 733 4282719274
23.234863 1538.5541 733 4282719274
24.341284 1538.5541 733 4282784547
25.447706 1538.5541 733 4282784547
26.554129 1538.5541 733 4282784797
27.660551 1538.5541 733 4282784797
28.766972 1538.5541 733 4282784797
29.873394 1538.5541 733 4282784797
30.979816 1538.5541 733 4282719274
32.033028 1538.5101 732 4282719274
33.137615 1538.5101 732 4282653467
34.185322 1538.4661 731 4282784797
35.229359 1538.422 730 4282391842
36.390827 1538.4661 731 4282457635
37.49358 1538.4661 731 4282063910
38.532108 1538.422 730 4281998117
39.699081 1538.4661 731 4282063658
40.937614 1538.5541 733 4282063658
42.044037 1538.5541 733 4282521381
43.150459 1538.5541 733 4282455332
44.256882 1538.5541 733 4282390320
45.363304 1538.5541 733 4282390320
47.41835 1538.4661 731 4282588719
48.440369 1538.422 730 4282523178
49.541283 1538.422 730 4282457385
50.6422 1538.422 730 4282520362
51.743118 1538.422 730 4282651947
52.844036 1538.422 730 4282455325
53.944954 1538.422 730 4281928981
55.045872 1538.422 730 4281467396
56.240368 1538.4661 731 4281139200
57.343121 1538.4661 731 4281073708
58.348625 1538.422 730 4281993018
59.449543 1538.422 730 4281404002
60.651375 1538.4661 731 4282259055
61.754128 1538.4661 731 4284036988
62.85688 1538.4661 731 4287260845
63.959633 1538.4661 731 4290353869
65.062386 1538.4661 731 4290419662
66.165138 1538.4661 731 4289900521
67.267891 1538.4661 731 4289506019
68.484406 1538.5101 732 4289377250
69.473396 1538.4661 731 4286876860
70.693581 1538.5101 732 4278210934
71.798164 1538.5101 732 4278210162
72.902756 1538.5101 732 4281870152
74.007339 1538.5101 732 4283054683
75.236694 1538.5541 733 4284895571
76.343117 1538.5541 733 4286803568
77.321098 1538.5101 732 4287329924
78.555962 1538.5541 733 4287724939
79.662384 1538.5541 733 4287329661
80.768806 1538.5541 733 4287000952
81.875229 1538.5541 733 4284902526
82.981651 1538.5541 733 4287008159
84.088074 1538.5541 733 4288656893
85.194496 1538.5541 733 4293131007
86.300919 1538.5541 733 4293787647
87.407341 1538.5541 733 4294049791
88.513763 1538.5541 733 4294246399
89.768806 1538.5981 734 4294246399
90.877068 1538.5981 734 4293328895
91.985321 1538.5981 734 4293525503
93.093575 1538.5981 734 4293525503
94.045868 1538.5541 733 4293853183
95.15229 1538.5541 733 4294180863
96.41835 1538.5981 734 4294115327
97.526604 1538.5981 734 4294180863
98.471558 1538.5541 733 4294180863
99.412842 1538.5101 732 4294180863
100.51743 1538.5101 732 4294180863
106.17982 1539.6991 759 4293263359
107.33395 1539.6991 759 4293722111
108.66055 1539.7432 760 4294246399
109.99083 1539.7871 761 4294246399
-1.119266 1537.7432 740 4282523678
0 1537.7009 739 4282784547
1.1174312 1537.7009 739 4282653218
2.2311926 1537.6587 738 4282652968
3.3467889 1537.6587 738 4282784297
4.4623852 1537.6587 738 4282784547
5.5779815 1537.6587 738 4282850340
6.6935778 1537.6587 738 4282523678
7.7963305 1537.6165 737 4282392091
8.8954124 1537.5743 736 4282261012
10.007339 1537.5743 736 4282458135
11.119267 1537.5743 736 4282652718
12.231193 1537.5743 736 4282784047
13.299083 1537.4899 734 4282784047
14.407339 1537.4899 734 4282784047
15.515596 1537.4899 734 4282783795
16.596331 1537.4478 733 4282849588
17.702753 1537.4478 733 4282784047
18.809174 1537.4478 733 4282784047
19.915596 1537.4478 733 4282783545
21.022018 1537.4478 733 4282783545
22.128441 1537.4478 733 4282719274
23.234863 1537.4478 733 4282719274
24.341284 1537.4478 733 4282784547
25.447706 1537.4478 733 4282850340
26.554129 1537.4478 733 4282457635
27.660551 1537.4478 733 4282457635
28.766972 1537.4478 733 4282784547
29.873394 1537.4478 733 4282850340
30.92844 1537.4055 732 4282654262
32.033028 1537.4055 732 4282522676
33.027523 1537.321 730 4282195219
34.128441 1537.321 730 4282261012
35.229359 1537.321 730 4282457385
