# .PCD v0.7 - Point Cloud Data file format
VERSION 0.7
FIELDS x y z rgb
SIZE 4 4 4 4
TYPE F F F U
COUNT 1 1 1 1
WIDTH 1359
HEIGHT 1
VIEWPOINT 0 0 0 1 0 0 0
POINTS 1359
DATA ascii
134.75229 1610.5688 810 4290832127
135.2 1609.989 806 4290700543
136.23853 1609.844 805 4290569471
136.66238 1609.2642 801 4290569471
137.68808 1609.1193 800 4290635263
138.29541 1608.6844 797 4290569471
139.31009 1608.5394 796 4290241023
140.11009 1608.2495 794 4290701567
141.1156 1608.1046 793 4290306815
142.11743 1607.9596 792 4290109439
143.1156 1607.8147 791 4290438655
143.89174 1607.5248 789 4290767359
145.10092 1607.5248 789 4290110463
146.31009 1607.5248 789 4290110463
147.51927 1607.5248 789 4290110463
148.50275 1607.3798 788 4290110463
149.93762 1607.5248 789 4290110463
151.14679 1607.5248 789 4290308095
152.35596 1607.5248 789 4290241023
-42 1605.6 784 4281667086
-40.799999 1605.6 784 4281732879
-39.539448 1605.4569 783 4282325272
-38.28257 1605.3137 782 4282259236
-37.086239 1605.3137 782 4280811790
-35.889908 1605.3137 782 4281335823
-34.693577 1605.3137 782 4281204748
-33.49725 1605.3137 782 4280877066
-32.300919 1605.3137 782 4280811529
-31.104588 1605.3137 782 4280811529
-29.908257 1605.3137 782 4280745992
-28.755962 1605.4569 783 4280877056
-27.557798 1605.4569 783 4281797642
-26.359632 1605.4569 783 4281404418
-25.161469 1605.4569 783 4281733383
-24.623854 1608.0331 801 4281732631
-23.357798 1607.8899 800 4281930010
-22.128441 1607.8899 800 4281930523
-21.429358 1610.323 817 4281601815
-20.168808 1610.323 817 4281993750
129.13762 1610.7523 820 4288132839
130.02568 1610.4661 818 4291554047
131.09724 1610.323 817 4291490047
132.16513 1610.1798 816 4290897919
132.84036 1609.7505 813 4290241023
133.89725 1609.6073 812 4290438399
134.75229 1609.321 810 4290635263
136 1609.321 810 4290569471
136.23853 1608.6055 805 4290569471
136.45871 1607.8899 800 4290635263
137.27707 1607.6036 798 4290570239
138.29541 1607.4606 797 4290438655
139.31009 1607.3174 796 4289585407
140.11009 1607.0312 794 4290045951
140.90276 1606.745 792 4290175999
141.90276 1606.6018 791 4290307583
142.68257 1606.3156 789 4290571007
143.89174 1606.3156 789 4290504959
144.88074 1606.1725 788 4289913855
146.08807 1606.1725 788 4290045439
147.07156 1606.0293 787 4290439167
148.27707 1606.0293 787 4290242047
149.48257 1606.0293 787 4289716479
150.91743 1606.1725 788 4290177023
152.12477 1606.1725 788 4290569471
-41.871559 1604.1174 782 4281601292
-40.675228 1604.1174 782 4281667086
-39.478901 1604.1174 782 4281667086
-38.28257 1604.1174 782 4281468943
-37.086239 1604.1174 782 4281074185
-35.889908 1604.1174 782 4281008135
-34.587154 1603.8348 780 4280942598
-33.394497 1603.8348 780 4280942598
-32.300919 1604.1174 782 4280942598
-31.104588 1604.1174 782 4280942598
-29.908257 1604.1174 782 4280942598
-28.711927 1604.1174 782 4281008135
-27.557798 1604.2587 783 4281534223
-26.319265 1604.1174 782 4281469193
-25.122936 1604.1174 782 4281732366
-24.660551 1606.9431 802 4282060313
-23.357798 1606.6605 800 4282849829
-22.128441 1606.6605 800 4282784547
130.40367 1609.4862 820 4290113535
131.09724 1609.0624 817 4292276991
132.16513 1608.9211 816 4291355903
132.84036 1608.4972 813 4290372607
133.89725 1608.356 812 4290372607
134.75229 1608.0734 810 4290372607
136 1608.0734 810 4290306815
136.23853 1607.3669 805 4290372607
136.86606 1606.9431 802 4290701567
137.07156 1606.2367 797 4290504447
138.08807 1606.0955 796 4290372863
138.89174 1605.8129 794 4290372607
140.11009 1605.8129 794 4290701567
140.90276 1605.5303 792 4290438655
141.90276 1605.389 791 4290570239
142.68257 1605.1064 789 4290569471
143.6734 1604.9651 788 4290306559
144.88074 1604.9651 788 4290306815
145.86606 1604.8239 787 4290504191
147.07156 1604.8239 787 4290439167
147.82568 1604.5413 785 4290570751
149.48257 1604.8239 787 4290767103
150.68808 1604.8239 787 4291030015
151.89359 1604.8239 787 4290569471
153.09908 1604.8239 787 4290635263
-40.675228 1602.9211 782 4281538570
-39.478901 1602.9211 782 4280683264
-38.165138 1602.6422 780 4281139978
-36.972477 1602.6422 780 4280745988
-35.779816 1602.6422 780 4280942604
-34.587154 1602.6422 780 4280942604
-33.394497 1602.6422 780 4280549376
-32.201836 1602.6422 780 4280681216
-31.009174 1602.6422 780 4280942592
-29.816513 1602.6422 780 4281008128
-28.623854 1602.6422 780 4281467396
-27.515596 1602.9211 782 4281598983
-26.319265 1602.9211 782 4281599232
-25.122936 1602.9211 782 4281796609
-24.733946 1605.989 804 4282060817
-23.427523 1605.7101 802 4282916126
-22.194496 1605.7101 802 4282652718
131.09724 1607.8019 817 4290507007
132.16513 1607.6624 816 4290244095
132.84036 1607.244 813 4290504447
133.89725 1607.1046 812 4290438655
134.75229 1606.8257 810 4290307583
135.60001 1606.5468 808 4290175999
136.44037 1606.2679 806 4289913343
137.27339 1605.989 804 4290308095
137.27707 1605.1523 798 4290438655
138.29541 1605.0128 797 4290372607
139.31009 1604.8734 796 4290569471
140.11009 1604.5945 794 4290569471
140.68991 1604.1761 791 4289847551
141.47339 1603.8972 789 4290242047
142.46605 1603.7578 788 4290372607
143.45505 1603.6184 787 4290372607
144.66055 1603.6184 787 4290372095
145.86606 1603.6184 787 4290437887
147.07156 1603.6184 787 4290175999
147.82568 1603.3395 785 4290241791
149.02753 1603.3395 785 4290241791
150.68808 1603.6184 787 4290504959
152.12477 1603.7578 788 4290307583
153.09908 1603.6184 787 4290307583
-40.675228 1601.7247 782 4281341184
-39.478901 1601.7247 782 4280946432
-38.165138 1601.4496 780 4280812294
-36.972477 1601.4496 780 4280614916
-35.779816 1601.4496 780 4280483841
-34.587154 1601.4496 780 4280418304
-33.343121 1601.3119 779 4280418304
-32.201836 1601.4496 780 4280746240
-30.961468 1601.3119 779 4281074688
-29.770641 1601.3119 779 4281074688
-28.579817 1601.3119 779 4281074433
-27.431192 1601.4496 780 4280942848
-26.319265 1601.7247 782 4281205248
-25.122936 1601.7247 782 4281797120
-23.926605 1601.7247 782 4282322442
-23.497248 1604.7523 804 4282848786
-22.26055 1604.7523 804 4282849840
131.28807 1606.679 818 4291027711
132.3578 1606.5413 817 4291619839
133.03487 1606.1284 814 4291095551
133.89725 1605.8533 812 4290832383
134.75229 1605.578 810 4290569471
135.60001 1605.3027 808 4290569471
136.44037 1605.0275 806 4290372095
137.27339 1604.7523 804 4290569471
137.68808 1604.2018 800 4290438143
138.29541 1603.7889 797 4290438143
138.89174 1603.3761 794 4290438143
139.89908 1603.2385 793 4290438143
140.68991 1602.9633 791 4290700799
141.47339 1602.6881 789 4290832127
142.46605 1602.5504 788 4290372607
143.45505 1602.4128 787 4290372607
144.66055 1602.4128 787 4290372095
145.42201 1602.1376 785 4290372095
146.62386 1602.1376 785 4290372095
147.82568 1602.1376 785 4290372095
149.02753 1602.1376 785 4290306815
150.68808 1602.4128 787 4290504447
151.89359 1602.4128 787 4290569471
153.09908 1602.4128 787 4290569471
154.53944 1602.5504 788 4290372607
-40.550457 1600.2568 780 4281076230
-39.3578 1600.2568 780 4281076230
-38.165138 1600.2568 780 4280812294
-36.915596 1600.1211 779 4280614916
-35.72477 1600.1211 779 4280483841
-34.480736 1599.9854 778 4280418304
-33.291744 1599.9854 778 4280549376
-32.102753 1599.9854 778 4280943617
-30.913761 1599.9854 778 4281074433
-29.724771 1599.9854 778 4281140226
-28.53578 1599.9854 778 4281467648
-27.346788 1599.9854 778 4281533440
-26.238533 1600.2568 780 4281600000
-25.045872 1600.2568 780 4281797120
-24.880733 1604.0587 808 4281863172
-23.636698 1604.0587 808 4282455052
-22.524771 1604.6018 812 4282784297
132.3578 1605.2808 817 4291094783
133.42386 1605.1449 816 4290832895
134.09358 1604.7377 813 4290438143
134.75229 1604.3303 810 4290241023
135.60001 1604.0587 808 4290504191
136.44037 1603.7871 806 4290634751
137.47707 1603.6514 805 4290700543
138.09908 1603.244 802 4290569471
138.08807 1602.4293 796 4290438143
138.89174 1602.1578 794 4290569471
139.89908 1602.022 793 4290701055
140.68991 1601.7505 791 4290898175
141.47339 1601.4789 789 4290832127
142.24954 1601.2073 787 4290241023
143.45505 1601.2073 787 4290372607
144.66055 1601.2073 787 4290372095
145.42201 1600.9358 785 4290437887
146.62386 1600.9358 785 4290634751
147.82568 1600.9358 785 4290568959
149.02753 1600.9358 785 4290438143
150.22935 1600.9358 785 4290569471
151.89359 1601.2073 787 4290569471
153.09908 1601.2073 787 4290635263
154.30458 1601.2073 787 4290504447
-39.3578 1599.0642 780 4280812810
-38.106422 1598.9303 779 4281073920
-36.858715 1598.7964 778 4280942592
-35.669724 1598.7964 778 4280483841
-34.480736 1598.7964 778 4280549378
-33.240368 1598.6624 777 4280680709
-32.102753 1598.7964 778 4280680709
-30.866055 1598.6624 777 4281074433
-29.6789 1598.6624 777 4281140226
-28.491743 1598.6624 777 4281467648
-27.304586 1598.6624 777 4281599232
-26.198166 1598.9303 779 4281599232
-25.007339 1598.9303 779 4281796609
-23.816513 1598.9303 779 4282191360
-23.636698 1602.8147 808 4282191360
-22.39266 1602.8147 808 4281994254
133.42386 1603.8862 816 4291292415
134.2899 1603.6184 814 4290766079
134.75229 1603.0825 810 4290569471
135.60001 1602.8147 808 4290766847
136.44037 1602.5468 806 4290438143
137.47707 1602.4128 805 4290569471
138.09908 1602.011 802 4290635263
138.50275 1601.4752 798 4290569471
138.89174 1600.9395 794 4290504447
139.68808 1600.6715 792 4290504447
140.68991 1600.5376 791 4290504959
141.47339 1600.2698 789 4290439167
142.46605 1600.1357 788 4290307583
143.45505 1600.0018 787 4290438911
144.22018 1599.7339 785 4290634751
145.42201 1599.7339 785 4290568959
146.62386 1599.7339 785 4290569471
147.60001 1599.6 784 4290832639
148.8 1599.6 784 4290438143
150 1599.6 784 4290372095
151.4312 1599.7339 785 4290635263
152.63303 1599.7339 785 4290898687
154.30458 1600.0018 787 4290438655
-38.047707 1597.6073 778 4280942592
-36.801834 1597.4752 777 4280877056
-35.614677 1597.4752 777 4280942598
-34.427525 1597.4752 777 4281008135
-33.240368 1597.4752 777 4281008128
-32.053211 1597.4752 777 4281008128
-30.866055 1597.4752 777 4281467648
-29.6789 1597.4752 777 4281401856
-28.447706 1597.3431 776 4281534208
-27.262384 1597.3431 776 4281600000
-26.077065 1597.3431 776 4281599232
-24.930275 1597.4752 777 4281796609
-24.880733 1601.5707 808 4281796105
-23.636698 1601.5707 808 4281796105
-22.39266 1601.5707 808 4281731082
134.09358 1602.2312 813 4290766079
134.55412 1601.7028 809 4290372607
135.2 1601.3064 806 4290438655
136.44037 1601.3064 806 4290569471
137.47707 1601.1743 805 4290635263
138.51009 1601.0422 804 4290504447
138.91743 1600.5138 800 4290570239
138.89174 1599.7211 794 4290504959
139.89908 1599.589 793 4290504959
140.68991 1599.3247 791 4290374143
141.47339 1599.0605 789 4290308351
142.24954 1598.7964 787 4290242303
143.01834 1598.5321 785 4290373887
144.22018 1598.5321 785 4290504447
145.2 1598.4 784 4290438655
146.39999 1598.4 784 4290438143
147.37431 1598.2679 783 4290438143
148.34496 1598.1357 782 4290372607
149.77065 1598.2679 783 4290372607
151.2 1598.4 784 4290504447
152.63303 1598.5321 785 4290438655
153.83487 1598.5321 785 4289650687
-37.988991 1596.2881 777 4280811520
-36.744953 1596.1578 776 4280745984
-35.559631 1596.1578 776 4280877060
-34.374313 1596.1578 776 4281139465
-33.188992 1596.1578 776 4281598983
-32.00367 1596.1578 776 4281533189
-30.818348 1596.1578 776 4281533440
-29.633028 1596.1578 776 4281533440
-28.447706 1596.1578 776 4281468160
-27.262384 1596.1578 776 4281665792
-26.077065 1596.1578 776 4281272320
-24.814678 1595.8972 774 4281469441
-23.596331 1595.767 773 4281796105
-23.67156 1600.4569 809 4281796105
-22.425688 1600.4569 809 4281665039
134.09358 1600.978 813 4291553279
134.55412 1600.4569 809 4290438143
135.2 1600.066 806 4290306303
136.23853 1599.9358 805 4290568447
137.27339 1599.8055 804 4290765567
138.09908 1599.5449 802 4290438655
138.08807 1598.7633 796 4290570239
138.89174 1598.5028 794 4290570495
139.68808 1598.2422 792 4290570495
140.68991 1598.1119 791 4290570495
141.47339 1597.8513 789 4290701823
142.24954 1597.5908 787 4290635519
143.01834 1597.3303 785 4290898687
144 1597.2 784 4290700799
144.97798 1597.0697 783 4290700799
146.17615 1597.0697 783 4290372607
147.14862 1596.9395 782 4290306815
147.88991 1596.679 780 4290110207
149.54129 1596.9395 782 4290241791
150.73761 1596.9395 782 4290372607
152.39999 1597.2 784 4290372607
153.83487 1597.3303 785 4290372607
-37.930275 1594.9725 776 4280877056
-36.744953 1594.9725 776 4280942592
-35.449543 1594.7156 774 4281008135
-34.267891 1594.7156 774 4281402381
-33.086239 1594.7156 774 4281598983
-31.904587 1594.7156 774 4281533189
-30.722937 1594.7156 774 4281533440
-29.541285 1594.7156 774 4281533440
-28.359632 1594.7156 774 4281533440
-27.177982 1594.7156 774 4281599232
-25.955963 1594.5872 773 4281469441
-24.776146 1594.5872 773 4281601283
-23.596331 1594.5872 773 4281469963
134.75229 1599.3395 810 4290502911
135.60001 1599.0825 808 4290502911
136.44037 1598.8257 806 4290502655
137.47707 1598.6973 805 4290765567
138.51009 1598.5688 804 4290372607
139.7468 1598.5688 804 4290570239
140.98349 1598.5688 804 4290701055
139.47707 1596.899 791 4290635263
140.68991 1596.899 791 4290306815
141.47339 1596.6422 789 4290504447
142.24954 1596.3854 787 4290372095
142.8 1596 784 4290701055
144 1596 784 4290832127
144.75597 1595.7432 782 4290832127
145.9523 1595.7432 782 4290832127
146.69725 1595.4862 780 4290635007
147.88991 1595.4862 780 4290175999
149.08257 1595.4862 780 4290175999
150.27522 1595.4862 780 4290241791
151.4679 1595.4862 780 4290307583
152.66055 1595.4862 780 4290438655
-37.812843 1593.5339 774 4280811521
-36.631191 1593.5339 774 4280942596
-35.449543 1593.5339 774 4280942604
-34.21468 1593.4073 773 4281336337
-33.034863 1593.4073 773 4281532939
-31.855045 1593.4073 773 4281532939
-30.67523 1593.4073 773 4281533440
-29.495413 1593.4073 773 4281533440
-28.315596 1593.4073 773 4281533440
-27.093578 1593.2808 772 4281599232
-25.915596 1593.2808 772 4281797888
-24.737616 1593.2808 772 4281863680
-23.559633 1593.2808 772 4281796875
135.14862 1598.345 812 4291226367
135.8 1597.9651 809 4291226367
136.44037 1597.5853 806 4291356927
137.47707 1597.4587 805 4291488767
138.71559 1597.4587 805 4291029247
139.95413 1597.4587 805 4291029247
137.00917 1594.9266 785 4291029247
138.63303 1595.1798 787 4290831615
139.83853 1595.1798 787 4290438655
141.04404 1595.1798 787 4290767359
141.81651 1594.9266 785 4290372607
142.58165 1594.6733 783 4290438655
143.55963 1594.5468 782 4290701055
144.31192 1594.2936 780 4291030015
145.50459 1594.2936 780 4290767103
146.47156 1594.167 779 4290701311
147.66238 1594.167 779 4290307583
148.85321 1594.167 779 4290504959
150.04404 1594.167 779 4290307583
151.23486 1594.167 779 4290307583
152.42569 1594.167 779 4290767103
-37.754128 1592.2275 773 4280615168
-36.57431 1592.2275 773 4280681216
-35.394497 1592.2275 773 4281139474
-34.161469 1592.1028 772 4281271317
-33.034863 1592.2275 773 4281664776
-31.805504 1592.1028 772 4281598983
-30.627523 1592.1028 772 4281600000
-29.449541 1592.1028 772 4281534208
-28.271559 1592.1028 772 4281533440
-27.093578 1592.1028 772 4281796609
-25.915596 1592.1028 772 4281731586
-24.737616 1592.1028 772 4281599744
-23.559633 1592.1028 772 4281796105
135.8 1596.7192 809 4290635519
136.44037 1596.345 806 4290701055
137.47707 1596.2202 805 4290701055
138.71559 1596.2202 805 4290504447
136.6367 1594.2239 789 4290701567
137.00917 1593.7247 785 4291029247
138.21101 1593.7247 785 4290963455
139.41284 1593.7247 785 4290438655
140.61469 1593.7247 785 4290701567
141.81651 1593.7247 785 4289848831
142.58165 1593.4752 783 4289914623
143.11926 1593.101 780 4290439167
144.31192 1593.101 780 4290504959
145.28073 1592.9762 779 4290439167
146.47156 1592.9762 779 4290504959
147.66238 1592.9762 779 4289913855
148.62386 1592.8513 778 4290111231
149.81285 1592.8513 778 4290569471
150.76881 1592.7266 777 4290701055
152.19083 1592.8513 778 4290767103
153.37982 1592.8513 778 4290701311
-37.754128 1591.0477 773 4281008384
-36.517429 1590.9248 772 4281271552
-35.339451 1590.9248 772 4281468189
-34.161469 1590.9248 772 4281468189
-32.983486 1590.9248 772 4281664776
-31.805504 1590.9248 772 4281664776
-30.579817 1590.8019 771 4281468416
-29.403669 1590.8019 771 4281402624
-28.227524 1590.8019 771 4281666304
-27.051376 1590.8019 771 4281797888
-25.875229 1590.8019 771 4281731586
-24.699083 1590.8019 771 4281665793
-23.522936 1590.8019 771 4281796105
136 1595.5963 810 4290438399
136.84404 1595.3505 808 4290438655
137.68074 1595.1046 806 4290438655
138.9211 1595.1046 806 4290438655
136.6367 1593.0146 789 4290438655
137.84587 1593.0146 789 4290832127
138.84404 1592.8917 788 4291292671
139.83853 1592.7688 787 4291030015
141.04404 1592.7688 787 4291030015
141.81651 1592.5229 785 4290438655
142.3633 1592.1542 782 4290372607
143.11926 1591.9082 780 4290438655
144.0899 1591.7853 779 4290438655
145.28073 1591.7853 779 4290504447
146.24586 1591.6624 778 4290833407
147.43486 1591.6624 778 4290175999
148.62386 1591.6624 778 4290241791
149.58165 1591.5394 777 4290439167
150.76881 1591.5394 777 4290504959
151.95596 1591.5394 777 4290307839
153.14311 1591.5394 777 4290307839
-37.695412 1589.7468 772 4281206275
-36.460552 1589.6257 771 4281600777
-35.284405 1589.6257 771 4281795871
-34.108257 1589.6257 771 4281664285
-32.93211 1589.6257 771 4281665039
-31.755962 1589.6257 771 4281599246
-30.579817 1589.6257 771 4281794816
-29.403669 1589.6257 771 4281663488
-28.227524 1589.6257 771 4281404418
-27.051376 1589.6257 771 4281601796
-25.875229 1589.6257 771 4281863172
-24.699083 1589.6257 771 4281797379
-23.522936 1589.6257 771 4281665793
135.8 1594.2275 809 4290635775
136.84404 1594.1064 808 4290241791
138.08807 1594.1064 808 4290307583
139.33211 1594.1064 808 4290504447
137.6367 1591.6844 788 4290241791
138.63303 1591.5634 787 4290636543
139.83853 1591.5634 787 4290307839
140.61469 1591.321 785 4290307839
141.60001 1591.2 784 4290569471
142.3633 1590.9578 782 4290569471
143.11926 1590.7156 780 4290635263
144.0899 1590.5945 779 4290569471
145.05688 1590.4734 778 4290438655
146.24586 1590.4734 778 4290701567
147.20734 1590.3523 777 4290176511
148.3945 1590.3523 777 4290308095
149.58165 1590.3523 777 4290571007
150.53578 1590.2312 776 4290439167
151.7211 1590.2312 776 4290242303
152.90642 1590.2312 776 4290308095
-38.873394 1588.5688 772 4280878603
-37.695412 1588.5688 772 4281273874
-36.460552 1588.4496 771 4283116078
-35.284405 1588.4496 771 4282853120
-34.055046 1588.3303 770 4281208064
-32.93211 1588.4496 771 4281665039
-31.706423 1588.3303 770 4281599246
-30.53211 1588.3303 770 4281598983
-29.357798 1588.3303 770 4281796105
-28.183487 1588.3303 770 4281796875
-27.051376 1588.4496 771 4281862924
-25.875229 1588.4496 771 4281863172
-24.699083 1588.4496 771 4281863172
-23.522936 1588.4496 771 4281533440
136.84404 1592.8624 808 4290701311
138.08807 1592.8624 808 4290701311
137.00917 1590.1193 785 4290701311
138.63303 1590.3578 787 4291096063
139.41284 1590.1193 785 4290767103
140.61469 1590.1193 785 4290701311
141.60001 1590 784 4290767103
142.3633 1589.7615 782 4290767103
142.89908 1589.4037 779 4290701311
143.86789 1589.2844 778 4290767103
144.83302 1589.1652 777 4290372863
146.02019 1589.1652 777 4290767615
146.97981 1589.0459 776 4290701311
148.16513 1589.0459 776 4290767103
149.35046 1589.0459 776 4290701311
150.53578 1589.0459 776 4290701311
151.7211 1589.0459 776 4290439167
152.90642 1589.0459 776 4290702591
-37.636696 1587.2734 771 4280882460
-36.460552 1587.2734 771 4282330162
-35.229359 1587.156 770 4282590754
-33.948624 1586.9211 768 4281077515
-32.777981 1586.9211 768 4281664022
-31.60734 1586.9211 768 4281795607
-30.436697 1586.9211 768 4281796105
-29.266054 1586.9211 768 4281861898
-28.095413 1586.9211 768 4281796875
-27.009174 1587.156 770 4281862924
-25.834862 1587.156 770 4282124547
-24.699083 1587.2734 771 4282124547
-23.522936 1587.2734 771 4281991424
137.68074 1591.3835 806 4290701311
137.00917 1588.9175 785 4290439167
138.21101 1588.9175 785 4290702591
139.41284 1588.9175 785 4291095551
140.39999 1588.8 784 4290963967
141.38348 1588.6826 783 4290701823
142.3633 1588.5652 782 4290701823
142.89908 1588.2129 779 4290701823
143.64587 1587.978 777 4290570495
144.60918 1587.8606 776 4289913855
145.79449 1587.8606 776 4290374399
146.52477 1587.6257 774 4290833151
147.70642 1587.6257 774 4290767103
148.88808 1587.6257 774 4290504447
150.06972 1587.6257 774 4290504447
151.25137 1587.6257 774 4290175999
152.43303 1587.6257 774 4290570495
-36.289909 1585.7505 768 4283050304
-35.119267 1585.7505 768 4282523930
-33.895412 1585.6349 767 4281273863
-32.726604 1585.6349 767 4281730328
-31.557798 1585.6349 767 4281796377
-30.38899 1585.6349 767 4281598983
-29.220184 1585.6349 767 4281927947
-28.051376 1585.6349 767 4281532939
-26.882568 1585.6349 767 4281204743
-25.754128 1585.7505 768 4281073664
-24.660551 1585.9817 770 4280942592
-23.486238 1585.9817 770 4280745984
136.44037 1590.1431 806 4290898175
137.68074 1590.1431 806 4290832127
138.63303 1587.9468 787 4290833151
139.41284 1587.7156 785 4291030015
140.39999 1587.6 784 4290898175
141.38348 1587.4844 783 4290898175
141.92661 1587.1376 780 4291029759
142.67889 1586.9064 778 4290701823
143.42386 1586.6753 776 4290570495
144.60918 1586.6753 776 4290701823
145.34312 1586.4441 774 4290701823
146.29724 1586.3285 773 4290701823
147.70642 1586.4441 774 4290701823
148.65688 1586.3285 773 4290767103
149.8367 1586.3285 773 4290767103
151.25137 1586.4441 774 4290242303
152.19633 1586.3285 773 4290505727
153.61469 1586.4441 774 4290702847
-38.570641 1584.4661 767 4281472023
-37.401836 1584.4661 767 4281866025
-36.233028 1584.4661 767 4282918713
-35.06422 1584.4661 767 4282196260
-33.895412 1584.4661 767 4281143572
-32.675228 1584.3523 766 4282190102
-31.557798 1584.4661 767 4281992723
-30.341284 1584.3523 766 4282059264
-29.174313 1584.3523 766 4281664512
-28.007339 1584.3523 766 4281597960
-26.882568 1584.4661 767 4283175711
-25.713762 1584.4661 767 4283180357
-24.583487 1584.5798 768 4282719806
-23.412844 1584.5798 768 4281009496
140.73395 1585.9449 780 4290701311
141.70825 1585.8312 779 4290832895
142.45871 1585.6036 777 4290504959
143.42386 1585.4899 776 4290636799
144.16147 1585.2623 774 4290636799
145.11743 1585.1487 773 4290636799
146.06972 1585.0349 772 4290504959
147.47707 1585.1487 773 4290570751
148.42569 1585.0349 772 4290636799
149.60367 1585.0349 772 4290636799
151.01651 1585.1487 773 4290177279
152.19633 1585.1487 773 4290308863
-38.570641 1583.2972 767 4281932324
-37.343121 1583.1853 766 4282261033
-36.233028 1583.2972 767 4282656048
-35.009174 1583.1853 766 4282457133
-33.842201 1583.1853 766 4282128168
-32.675228 1583.1853 766 4281666082
-31.508257 1583.1853 766 4281337373
-30.341284 1583.1853 766 4281466880
-29.128441 1583.0734 765 4280811520
-28.007339 1583.1853 766 4278648832
-26.840366 1583.1853 766 4284895823
-25.673395 1583.1853 766 4286345096
-24.506422 1583.1853 766 4289108402
-23.376146 1583.2972 767 4287987858
141.48991 1584.5284 778 4290832127
142.23853 1584.3046 776 4290701823
142.97981 1584.0807 774 4290899455
143.93762 1583.9688 773 4290702079
144.89174 1583.8569 772 4290767871
146.06972 1583.8569 772 4290833407
147.24771 1583.8569 772 4290899455
148.42569 1583.8569 772 4290570495
149.60367 1583.8569 772 4290570495
150.78165 1583.8569 772 4290308351
151.95964 1583.8569 772 4290374143
153.13762 1583.8569 772 4290571007
-39.739449 1582.1284 767 4281932324
-38.570641 1582.1284 767 4282392875
-37.401836 1582.1284 767 4282788151
-36.233028 1582.1284 767 4282656309
-35.009174 1582.0183 766 4282523178
-33.842201 1582.0183 766 4282391336
-32.675228 1582.0183 766 4282454569
-31.508257 1582.0183 766 4281139221
-30.293577 1581.9082 765 4281532416
-29.128441 1581.9082 765 4281401344
-27.963303 1581.9082 765 4278190090
-26.798164 1581.9082 765 4282864226
-25.633028 1581.9082 765 4284966784
-24.46789 1581.9082 765 4287401381
-23.339449 1582.0183 766 4287663522
141.79817 1582.899 774 4290636799
142.7578 1582.7889 773 4290571007
143.71376 1582.679 772 4290176511
144.89174 1582.679 772 4290505727
145.84221 1582.5688 771 4290702591
147.01834 1582.5688 771 4290636799
148.19449 1582.5688 771 4290570495
149.37064 1582.5688 771 4290701823
150.54678 1582.5688 771 4290635519
151.72293 1582.5688 771 4290767103
-39.739449 1580.9596 767 4281669153
-38.570641 1580.9596 767 4282063910
-37.343121 1580.8513 766 4282524461
-36.176147 1580.8513 766 4283511357
-35.009174 1580.8513 766 4283118127
-33.842201 1580.8513 766 4282921005
-32.675228 1580.8513 766 4281539904
-31.508257 1580.8513 766 4279369759
-30.293577 1580.7432 765 4281335815
-29.082569 1580.6349 764 4287453540
-27.919266 1580.6349 764 4286539906
-26.798164 1580.7432 765 4286145404
-25.633028 1580.7432 765 4284834655
-24.46789 1580.7432 765 4284045139
-23.302752 1580.7432 765 4284572026
140.39816 1581.6091 773 4290767103
141.57799 1581.6091 773 4290701823
142.53578 1581.501 772 4290570495
143.71376 1581.501 772 4290571007
144.66606 1581.3927 771 4290702591
145.84221 1581.3927 771 4290898943
147.01834 1581.3927 771 4290833151
147.9633 1581.2844 770 4290898175
149.13762 1581.2844 770 4291292671
150.31192 1581.2844 770 4290898175
151.48624 1581.2844 770 4290832127
-39.677063 1579.6844 766 4281932324
-38.51009 1579.6844 766 4281998117
-37.343121 1579.6844 766 4281474601
-36.176147 1579.6844 766 4283645770
-35.009174 1579.6844 766 4283384675
-33.842201 1579.6844 766 4282924124
-32.623852 1579.578 765 4281936949
-31.458715 1579.578 765 4279173643
-30.245872 1579.4716 764 4281073664
-29.082569 1579.4716 764 4288177760
-27.919266 1579.4716 764 4288972453
-26.755962 1579.4716 764 4288380316
-25.592661 1579.4716 764 4286018695
-24.46789 1579.578 765 4284308077
-23.266054 1579.4716 764 4283915898
141.3578 1580.323 772 4290963967
142.31377 1580.2166 771 4291029759
143.48991 1580.2166 771 4290898943
144.66606 1580.2166 771 4290898943
145.61469 1580.1101 770 4290963967
146.78899 1580.1101 770 4290963967
147.50092 1579.8972 768 4290635007
149.13762 1580.1101 770 4291029503
150.31192 1580.1101 770 4291028479
151.48624 1580.1101 770 4291094271
-38.51009 1578.5175 766 4281997084
-37.343121 1578.5175 766 4281997865
-36.119267 1578.4128 765 4285353309
-34.954128 1578.4128 765 4284831355
-33.78899 1578.4128 765 4283910253
-32.623852 1578.4128 765 4281609031
-31.458715 1578.4128 765 4279240483
-30.245872 1578.3082 764 4279894561
-29.082569 1578.3082 764 4286474117
-27.831192 1578.0991 762 4288184988
-26.755962 1578.3082 764 4289106090
-25.592661 1578.3082 764 4287464606
-24.429358 1578.3082 764 4287267483
-23.266054 1578.3082 764 4287333034
139.74312 1578.9358 770 4290898687
141.13762 1579.0404 771 4291160831
142.09174 1578.9358 770 4291358207
143.26605 1578.9358 770 4291029759
144.44037 1578.9358 770 4290898175
145.15964 1578.7266 768 4290963967
146.33028 1578.7266 768 4291095551
147.50092 1578.7266 768 4290635519
148.67155 1578.7266 768 4291030015
149.84221 1578.7266 768 4291292415
151.01285 1578.7266 768 4291226623
-39.677063 1577.3505 766 4282259236
-38.449543 1577.2477 765 4282259236
-37.284405 1577.2477 765 4282258736
-36.119267 1577.2477 765 4285482593
-34.899082 1577.1449 764 4284110446
-33.735779 1577.1449 764 4283320930
-32.572475 1577.1449 764 4281413685
-31.409174 1577.1449 764 4281084720
-30.150459 1576.9395 762 4282859096
-28.990826 1576.9395 762 4285753988
-27.831192 1576.9395 762 4285688988
-26.67156 1576.9395 762 4286215332
-25.511927 1576.9395 762 4286283650
-24.352293 1576.9395 762 4286415236
-23.192661 1576.9395 762 4287397266
-22.033028 1576.9395 762 4287857817
140.91743 1577.7615 770 4290767103
142.09174 1577.7615 770 4290833151
142.81834 1577.5559 768 4290767103
143.989 1577.5559 768 4290833151
144.93211 1577.4532 767 4291029759
146.10092 1577.4532 767 4291029759
147.26973 1577.4532 767 4290439167
148.43854 1577.4532 767 4290702591
149.60735 1577.4532 767 4290768639
151.01285 1577.5559 768 4290637055
-37.284405 1576.0825 765 4282127155
-36.062386 1575.9817 764 4283837517
-34.899082 1575.9817 764 4284173114
-33.629356 1575.7798 762 4284239163
-32.469727 1575.7798 762 4283255880
-31.310091 1575.7798 762 4283255880
-30.150459 1575.7798 762 4283716999
-28.944954 1575.679 761 4287598785
-27.787155 1575.679 761 4286743170
-26.67156 1575.7798 762 4283453520
-25.511927 1575.7798 762 4282863166
-24.352293 1575.7798 762 4282797373
-23.192661 1575.7798 762 4285754962
-22.033028 1575.7798 762 4287465837
139.30643 1576.3854 768 4291359487
140.91743 1576.5872 770 4291095807
141.64771 1576.3854 768 4290898175
142.81834 1576.3854 768 4290767103
143.76331 1576.2844 767 4290898943
144.70459 1576.1835 766 4291030015
145.87157 1576.1835 766 4290963967
147.03853 1576.1835 766 4290242047
148.20551 1576.1835 766 4290636543
149.37248 1576.1835 766 4291030271
150.77615 1576.2844 767 4290833151
-37.225689 1574.8184 764 4282061358
-36.062386 1574.8184 764 4283377218
-34.78899 1574.6202 762 4282792258
-33.629356 1574.6202 762 4283976532
-32.469727 1574.6202 762 4283256389
-31.26055 1574.5211 761 4282730045
-30.102753 1574.5211 761 4283322464
-28.944954 1574.5211 761 4286743699
-27.74312 1574.422 760 4286154374
-26.587156 1574.422 760 4283128153
-25.431192 1574.422 760 4283715397
-24.275229 1574.422 760 4284702292
-23.155964 1574.5211 761 4285032046
-21.998165 1574.5211 761 4285295474
140.47707 1575.2147 768 4290768639
141.42569 1575.1156 767 4290702847
142.5945 1575.1156 767 4290701823
143.53761 1575.0165 766 4290701823
144.47707 1574.9175 765 4290438655
145.6422 1574.9175 765 4290701567
146.80734 1574.9175 765 4290242303
147.97247 1574.9175 765 4290505727
149.13762 1574.9175 765 4291030271
150.30275 1574.9175 765 4290898943
-37.225689 1573.655 764 4282060588
-36.062386 1573.655 764 4282718774
-34.78899 1573.4606 762 4283117375
-33.629356 1573.4606 762 4284959579
-32.41835 1573.3633 761 4283451442
-31.26055 1573.3633 761 4279635456
-30.055046 1573.2661 760 4281083939
-28.899082 1573.2661 760 4284965982
-27.699083 1573.1688 759 4286545257
-26.544954 1573.1688 759 4286216549
-25.390825 1573.1688 759 4286809201
-24.236698 1573.1688 759 4288256647
-23.119267 1573.2661 760 4287663504
-21.963303 1573.2661 760 4284834405
-20.807339 1573.2661 760 4283583536
138.86972 1573.8495 766 4291029759
140.25688 1573.9468 767 4291030015
141.20367 1573.8495 766 4291292927
142.37064 1573.8495 766 4290767103
143.31192 1573.7523 765 4290701311
144.47707 1573.7523 765 4290832127
145.6422 1573.7523 765 4291424511
146.80734 1573.7523 765 4291226623
147.73946 1573.655 764 4291226623
149.13762 1573.7523 765 4291424255
150.30275 1573.7523 765 4291490047
-37.108257 1572.3009 762 4282125086
-35.948624 1572.3009 762 4282256928
-34.78899 1572.3009 762 4282983216
-33.576145 1572.2056 761 4285088335
-32.41835 1572.2056 761 4283910212
-31.21101 1572.1101 760 4280160011
-30.055046 1572.1101 760 4282984201
-28.85321 1572.0146 759 4288708192
-27.699083 1572.0146 759 4287662748
-26.544954 1572.0146 759 4287202197
-25.350458 1571.9193 758 4286612631
-24.198166 1571.9193 758 4286941340
-23.082569 1572.0146 759 4287531934
-21.92844 1572.0146 759 4281741894
-20.807339 1572.1101 760 4282059264
-19.620184 1572.0146 759 4281204736
137.48624 1572.5872 765 4291160575
138.65138 1572.5872 765 4291029247
140.0367 1572.6826 766 4290832127
140.98166 1572.5872 765 4291095551
142.14679 1572.5872 765 4290898175
143.08624 1572.4917 764 4290898175
144.24954 1572.4917 764 4290700799
145.6422 1572.5872 765 4291095551
146.80734 1572.5872 765 4291029247
147.73946 1572.4917 764 4291029247
148.90276 1572.4917 764 4291029247
150.30275 1572.5872 765 4291029247
-35.891743 1571.0477 761 4282256928
-34.733944 1571.0477 761 4282785823
-33.576145 1571.0477 761 4283312167
-32.366974 1570.9541 760 4282458416
-31.161469 1570.8606 759 4279762952
-30.007339 1570.8606 759 4279964694
-28.85321 1570.8606 759 4287201925
-27.655046 1570.767 758 4287466934
-26.502752 1570.767 758 4288453829
-25.350458 1570.767 758 4287861399
-24.198166 1570.767 758 4286413953
-23.045872 1570.767 758 4287266436
-21.893578 1570.767 758 4281476396
-20.774311 1570.8606 759 4280287232
-19.620184 1570.8606 759 4281272582
-18.436697 1570.767 758 4281796627
138.65138 1571.422 765 4290963967
139.81651 1571.422 765 4290898175
140.75963 1571.3285 764 4291161343
141.92294 1571.3285 764 4290963967
143.08624 1571.3285 764 4290898175
143.79449 1571.1412 762 4290635007
144.95413 1571.1412 762 4290963711
146.11375 1571.1412 762 4290898175
147.27339 1571.1412 762 4290898175
148.43303 1571.1412 762 4290898175
150.06606 1571.3285 764 4290898175
-33.522934 1569.7982 760 4282718490
-32.315598 1569.7064 759 4281798424
-31.111927 1569.6146 758 4280352770
-30.007339 1569.7064 759 4278195221
-28.807339 1569.6146 758 4284844683
-27.655046 1569.6146 758 4285824440
-26.502752 1569.6146 758 4286087611
-25.350458 1569.6146 758 4287861138
-24.159634 1569.5229 757 4288189846
-23.045872 1569.6146 758 4287596192
-21.893578 1569.6146 758 4280753976
-20.741285 1569.6146 758 4280811520
-19.588991 1569.6146 758 4282124554
-18.436697 1569.6146 758 4281994254
138.43303 1570.1652 764 4290833407
139.15596 1569.9817 762 4290898175
140.3156 1569.9817 762 4290898175
141.47523 1569.9817 762 4290963967
142.63486 1569.9817 762 4290963967
143.56697 1569.8899 761 4290569471
144.72478 1569.8899 761 4290635263
145.88257 1569.8899 761 4290372607
147.04036 1569.8899 761 4290570239
148.43303 1569.9817 762 4290701823
149.59267 1569.9817 762 4290701823
-32.315598 1568.5522 759 4282059543
-31.111927 1568.4624 758 4285809744
-29.959633 1568.4624 758 4286937453
-28.807339 1568.4624 758 4290687654
-27.61101 1568.3724 757 4287799728
-26.46055 1568.3724 757 4284181370
-25.310091 1568.3724 757 4285562478
-24.159634 1568.3724 757 4287733646
-23.009174 1568.3724 757 4288645770
-21.858715 1568.3724 757 4280355853
-20.642202 1568.1926 755 4279959556
-19.557798 1568.3724 757 4281732127
-18.407339 1568.3724 757 4281862924
135.67706 1568.822 762 4291030527
136.8367 1568.822 762 4291292415
137.99634 1568.822 762 4291490047
138.93578 1568.7321 761 4291030015
140.09358 1568.7321 761 4290898175
141.25137 1568.7321 761 4290963967
142.40918 1568.7321 761 4291292927
143.56697 1568.7321 761 4290963455
144.72478 1568.7321 761 4291160575
145.88257 1568.7321 761 4290963967
147.04036 1568.7321 761 4290898175
148.19817 1568.7321 761 4290963967
149.59267 1568.822 762 4290898175
-33.416515 1567.3101 758 4281537033
-32.264221 1567.3101 758 4282253833
-31.062386 1567.222 757 4285017139
-29.959633 1567.3101 758 4287595138
-28.761467 1567.222 757 4289700257
-27.61101 1567.222 757 4287603653
-26.46055 1567.222 757 4282339957
-25.310091 1567.222 757 4280962321
-24.082569 1567.0459 755 4286949228
-22.93578 1567.0459 755 4288516783
-21.78899 1567.0459 755 4281411138
-20.609175 1566.9578 754 4279631872
-19.46422 1566.9578 754 4281273113
-18.348623 1567.0459 755 4281994254
-17.174313 1566.9578 754 4281862924
-16.00367 1566.8698 753 4281470211
133.14679 1567.5743 761 4290768383
135.67706 1567.6624 762 4290898943
136.62018 1567.5743 761 4291030015
137.77798 1567.5743 761 4291095807
138.71559 1567.4862 760 4291226623
140.09358 1567.5743 761 4291029503
141.02753 1567.4862 760 4290963455
142.18349 1567.4862 760 4291292415
143.33945 1567.4862 760 4290963967
144.72478 1567.5743 761 4291029759
145.88257 1567.5743 761 4291160575
147.04036 1567.5743 761 4291029247
148.19817 1567.5743 761 4290963455
149.35596 1567.5743 761 4290963455
-31.062386 1566.0715 757 4282454805
-29.911926 1566.0715 757 4284766507
-28.761467 1566.0715 757 4289372017
-27.522936 1565.899 755 4288519581
-26.376146 1565.899 755 4283914071
-25.229359 1565.899 755 4283193167
-24.082569 1565.899 755 4288390814
-22.899082 1565.8129 754 4288582324
-21.754128 1565.8129 754 4282989919
-20.576147 1565.7266 753 4279828493
-19.433027 1565.7266 753 4280748827
-18.319265 1565.8129 754 4281993750
-17.14679 1565.7266 753 4281993750
-16.00367 1565.7266 753 4281994501
133.14679 1566.4165 761 4291228159
134.30458 1566.4165 761 4290767359
135.46239 1566.4165 761 4290833151
136.62018 1566.4165 761 4290963967
137.55963 1566.3303 760 4290963967
138.71559 1566.3303 760 4291160831
139.87157 1566.3303 760 4291226623
141.02753 1566.3303 760 4291029247
142.18349 1566.3303 760 4291226623
143.33945 1566.3303 760 4290963455
144.49541 1566.3303 760 4290897663
145.65138 1566.3303 760 4291160831
147.04036 1566.4165 761 4291292415
148.19817 1566.4165 761 4290963455
149.35596 1566.4165 761 4291029247
-29.911926 1564.9211 757 4280881408
-28.669725 1564.7523 755 4287592274
-27.478899 1564.6678 754 4287530637
-26.376146 1564.7523 755 4284767331
-25.188992 1564.6678 754 4284109901
-24.044037 1564.6678 754 4287333758
-22.899082 1564.6678 754 4287138714
-21.719267 1564.5835 753 4282401362
-20.576147 1564.5835 753 4280356107
-19.433027 1564.5835 753 4280421900
-18.289907 1564.5835 753 4282123539
-17.14679 1564.5835 753 4282123539
-15.977982 1564.499 752 4281796875
131.36147 1565.0055 758 4290899455
133.14679 1565.2587 761 4290899455
134.30458 1565.2587 761 4290898175
135.24771 1565.1743 760 4291029759
136.40367 1565.1743 760 4291029759
137.55963 1565.1743 760 4290963967
138.49541 1565.09 759 4291423487
139.64954 1565.09 759 4291423487
140.80367 1565.09 759 4290963455
141.95779 1565.09 759 4291029247
143.11192 1565.09 759 4290832127
144.26605 1565.09 759 4290897919
145.42018 1565.09 759 4291160831
146.80734 1565.1743 760 4291029503
147.9633 1565.1743 760 4290898175
-29.816513 1563.6055 755 4280419328
-28.623854 1563.5229 754 4284959025
-27.478899 1563.5229 754 4286805574
-26.333944 1563.5229 754 4285161006
-25.188992 1563.5229 754 4284439395
-24.005505 1563.4404 753 4285294704
-22.862385 1563.4404 753 4285886046
-21.719267 1563.4404 753 4282925361
-20.543119 1563.3578 752 4281207320
-19.401834 1563.3578 752 4280878355
-18.26055 1563.3578 752 4281796123
-17.119267 1563.3578 752 4281993502
-15.952293 1563.2753 751 4281862924
-14.788991 1563.1926 750 4281994254
130.20917 1563.8533 758 4291358207
131.36147 1563.8533 758 4291095807
132.51376 1563.8533 758 4291095807
133.87891 1563.9358 759 4291095807
135.03302 1563.9358 759 4291424511
136.18715 1563.9358 759 4291161599
137.12294 1563.8533 758 4291030015
138.05504 1563.7706 757 4291095807
139.42752 1563.8533 758 4291161599
140.35596 1563.7706 757 4291030015
141.73212 1563.8533 758 4291161599
142.8844 1563.8533 758 4290963967
144.0367 1563.8533 758 4291095551
145.189 1563.8533 758 4290898175
146.57431 1563.9358 759 4290832383
147.72844 1563.9358 759 4290963455
-28.623854 1562.3779 754 4287066977
-27.478899 1562.3779 754 4286939543
-26.333944 1562.3779 754 4286018441
-25.148624 1562.2972 753 4285953402
-24.005505 1562.2972 753 4285558644
-22.825687 1562.2166 752 4285953136
-21.684404 1562.2166 752 4284439897
-20.543119 1562.2166 752 4281873232
-19.370642 1562.1357 751 4279241768
-18.231194 1562.1357 751 4281532939
-17.091743 1562.1357 751 4281993490
-15.926605 1562.0551 750 4281667589
-14.765138 1561.9744 749 4281601796
-13.629357 1561.9744 749 4281994254
130.20917 1562.7009 758 4291422719
131.36147 1562.7009 758 4291160831
132.30275 1562.6202 757 4291292415
133.45322 1562.6202 757 4291096319
134.60367 1562.6202 757 4291162111
135.75414 1562.6202 757 4291162111
136.90459 1562.6202 757 4291162111
138.05504 1562.6202 757 4291030527
139.20551 1562.6202 757 4290898943
140.35596 1562.6202 757 4290963967
141.50642 1562.6202 757 4290963967
142.65688 1562.6202 757 4290570495
143.80734 1562.6202 757 4290833407
145.189 1562.7009 758 4290963967
146.57431 1562.7816 759 4290963967
-28.577982 1561.1542 753 4286610291
-27.434862 1561.1542 753 4286940828
-26.291742 1561.1542 753 4284572280
-25.148624 1561.1542 753 4281089644
-23.966972 1561.0752 752 4280760679
-22.825687 1561.0752 752 4282926958
-21.684404 1561.0752 752 4285558422
-20.510092 1560.9963 751 4285619280
-19.339449 1560.9175 750 4279829504
-18.201836 1560.9175 750 4281073664
-17.06422 1560.9175 750 4282124804
-15.900917 1560.8385 749 4281797379
-14.741284 1560.7596 748 4281863172
-13.60734 1560.7596 748 4281797379
130.00183 1561.4697 757 4291357183
131.1523 1561.4697 757 4291095807
131.88074 1561.3119 755 4291556351
133.02753 1561.3119 755 4291161599
134.17432 1561.3119 755 4291161599
135.32111 1561.3119 755 4290965503
136.24954 1561.233 754 4291031295
137.3945 1561.233 754 4290898943
138.76147 1561.3119 755 4290833151
139.90826 1561.3119 755 4291029759
141.05504 1561.3119 755 4291095551
142.20183 1561.3119 755 4291095807
143.34862 1561.3119 755 4291161599
144.95779 1561.4697 757 4291292415
146.34128 1561.5486 758 4291358207
-28.577982 1560.011 753 4285100912
-27.434862 1560.011 753 4286024616
-26.291742 1560.011 753 4284116619
-25.148624 1560.011 753 4278201417
-23.966972 1559.934 752 4278199618
-22.825687 1559.934 752 4281608704
-21.649542 1559.8569 751 4286543172
-20.510092 1559.8569 751 4286670213
-19.339449 1559.7798 750 4280025120
-18.201836 1559.7798 750 4280745984
-17.036697 1559.7028 749 4282060815
-15.900917 1559.7028 749 4281733383
-14.741284 1559.6257 748 4281733383
-13.60734 1559.6257 748 4281601796
-12.473394 1559.6257 748 4281470211
-11.302752 1559.4716 746 4281797888
129.58716 1560.1652 755 4291358463
130.73395 1560.1652 755 4291095807
131.66972 1560.0881 754 4291161599
132.60184 1560.011 753 4291292671
133.74495 1560.011 753 4291292671
134.88808 1560.011 753 4290899455
136.03119 1560.011 753 4290833663
137.17432 1560.011 753 4290702079
138.31743 1560.011 753 4290833663
139.6844 1560.0881 754 4291030015
140.82936 1560.0881 754 4291030015
141.97432 1560.0881 754 4291358463
143.11926 1560.0881 754 4291292671
144.26422 1560.0881 754 4290701823
-27.434862 1558.8679 753 4286417051
-26.291742 1558.8679 753 4287008931
-25.148624 1558.8679 753 4282932380
-23.966972 1558.7926 752 4281418884
-22.825687 1558.7926 752 4283190094
-21.649542 1558.7174 751 4287993239
-20.477064 1558.6422 750 4288514173
-19.308256 1558.567 749 4279697920
-18.172478 1558.567 749 4280090624
-17.036697 1558.567 749 4281863184
-15.875229 1558.4917 748 4281994254
-14.741284 1558.4917 748 4281994254
-13.60734 1558.4917 748 4281601292
-12.433027 1558.3413 746 4281601292
-11.302752 1558.3413 746 4281797379
129.37982 1558.9431 754 4291490047
130.3156 1558.8679 753 4291292671
131.45871 1558.8679 753 4291226879
132.60184 1558.8679 753 4291226879
133.53027 1558.7926 752 4291358463
134.67155 1558.7926 752 4291096319
135.81285 1558.7926 752 4290899199
136.95413 1558.7926 752 4290833151
138.31743 1558.8679 753 4291227903
139.46056 1558.8679 753 4291423487
140.60367 1558.8679 753 4291226367
141.7468 1558.8679 753 4291292671
142.88991 1558.8679 753 4291358463
144.03302 1558.8679 753 4290963967
-26.291742 1557.7247 753 4286942084
-25.108257 1557.6514 752 4286285213
-23.966972 1557.6514 752 4285364111
-22.78899 1557.578 751 4285625972
-21.614679 1557.5046 750 4287994520
-20.477064 1557.5046 750 4287924643
-19.308256 1557.4312 749 4279700519
-18.172478 1557.4312 749 4279762944
-17.009174 1557.3578 748 4281534984
-15.875229 1557.3578 748 4282059543
-14.693578 1557.2111 746 4281993750
-13.563303 1557.2111 746 4281667086
-12.433027 1557.2111 746 4281667086
-11.302752 1557.2111 746 4281601796
-10.172477 1557.2111 746 4281601796
127.82385 1557.6514 752 4290898943
128.96513 1557.6514 752 4291162111
130.10641 1557.6514 752 4291555071
131.24771 1557.6514 752 4291423487
132.38899 1557.6514 752 4290963967
133.53027 1557.6514 752 4291292927
134.67155 1557.6514 752 4291424255
135.81285 1557.6514 752 4291292671
136.95413 1557.6514 752 4290898943
138.09541 1557.6514 752 4291227903
139.46056 1557.7247 753 4291555071
140.60367 1557.7247 753 4291292159
141.7468 1557.7247 753 4291226111
142.66055 1557.6514 752 4291423231
144.03302 1557.7247 753 4291030015
-25.108257 1556.5101 752 4289702828
-23.966972 1556.5101 752 4290623930
-22.78899 1556.4385 751 4289638589
-21.614679 1556.3669 750 4289638589
-20.444036 1556.2954 749 4287859882
-19.308256 1556.2954 749 4280359480
-18.14312 1556.2239 748 4279107584
-17.009174 1556.2239 748 4280682008
-15.823853 1556.0807 746 4281862170
-14.669724 1556.0092 745 4281993500
-13.563303 1556.0807 746 4281862924
-12.412844 1556.0092 745 4281862924
-11.302752 1556.0807 746 4281601292
-10.172477 1556.0807 746 4281732879
-9.042202 1556.0807 746 4281798937
126.4789 1556.4385 751 4292015871
127.61835 1556.4385 751 4291161599
128.96513 1556.5101 752 4291161599
129.89725 1556.4385 751 4291489279
131.0367 1556.4385 751 4291555071
132.17615 1556.4385 751 4291423487
133.3156 1556.4385 751 4291752703
134.45505 1556.4385 751 4291358463
135.5945 1556.4385 751 4291226879
136.95413 1556.5101 752 4291030015
138.09541 1556.5101 752 4291292927
139.23669 1556.5101 752 4291555071
140.37798 1556.5101 752 4291226367
141.51927 1556.5101 752 4291030015
142.66055 1556.5101 752 4291358719
143.80183 1556.5101 752 4291161599
-25.108257 1555.3688 752 4289768644
-23.966972 1555.3688 752 4289571522
-22.78899 1555.2991 751 4288982712
-21.614679 1555.2294 750 4288390575
-20.444036 1555.1597 749 4284912534
-19.277063 1555.09 748 4281557091
-18.14312 1555.09 748 4281213033
-16.954128 1554.9504 746 4279699537
-15.798165 1554.8807 745 4281335815
-14.669724 1554.8807 745 4281926928
-13.541285 1554.8807 745 4281862420
-12.412844 1554.8807 745 4281796627
-11.284404 1554.8807 745 4281469963
-10.172477 1554.9504 746 4281732879
-9.027523 1554.8807 745 4281732631
-7.8990827 1554.8807 745 4281798424
125.13761 1555.2294 750 4291554559
126.27523 1555.2294 750 4291488767
127.41284 1555.2294 750 4291292159
128.7578 1555.2991 751 4291226111
129.68808 1555.2294 750 4291291135
131.0367 1555.2991 751 4291422719
132.17615 1555.2991 751 4291226111
133.3156 1555.2991 751 4291489279
134.45505 1555.2991 751 4291095807
135.5945 1555.2991 751 4291095807
136.73395 1555.2991 751 4290701311
137.8734 1555.2991 751 4291096063
139.23669 1555.3688 752 4291358463
140.37798 1555.3688 752 4291161087
141.51927 1555.3688 752 4290701823
142.4312 1555.2991 751 4290899455
-23.966972 1554.2275 752 4283912045
-22.78899 1554.1597 751 4280632905
-21.614679 1554.0918 750 4278988336
-20.444036 1554.0238 749 4282013806
-19.277063 1553.9559 748 4286882744
-18.084404 1553.8202 746 4286610830
-16.954128 1553.8202 746 4278978842
-15.798165 1553.7523 745 4278190080
-14.645871 1553.6844 744 4280028941
-13.519266 1553.6844 744 4281469713
-12.39266 1553.6844 744 4281469713
-11.266055 1553.6844 744 4281731082
-10.155963 1553.7523 745 4281796875
-9.0128441 1553.6844 744 4281862420
-7.8862386 1553.6844 744 4281862420
123.6 1553.9559 748 4291751935
124.73395 1553.9559 748 4291292671
126.07156 1554.0238 749 4291226879
127.20734 1554.0238 749 4291358463
128.55046 1554.0918 750 4291424255
129.68808 1554.0918 750 4291424255
130.82568 1554.0918 750 4291424255
131.9633 1554.0918 750 4291358463
133.10092 1554.0918 750 4291358463
134.23853 1554.0918 750 4291030015
135.37614 1554.0918 750 4291095807
136.73395 1554.1597 751 4290898175
137.8734 1554.1597 751 4291292927
139.23669 1554.2275 752 4291292671
140.1523 1554.1597 751 4291226879
141.29175 1554.1597 751 4290963967
142.4312 1554.1597 751 4291030015
-22.78899 1553.0201 751 4278190612
-21.614679 1552.9541 750 4281351504
-20.444036 1552.8881 749 4283586891
-19.277063 1552.822 748 4288192145
-18.084404 1552.6899 746 4288321966
-16.926605 1552.6239 745 4281216322
-15.772477 1552.5577 744 4278190080
-14.645871 1552.5577 744 4279175190
-13.519266 1552.5577 744 4281469713
-12.39266 1552.5577 744 4281601042
-11.266055 1552.5577 744 4281797379
-10.139449 1552.5577 744 4281797379
-9.0128441 1552.5577 744 4281994254
-7.8862386 1552.5577 744 4281862924
-6.7706423 1552.6239 745 4281797379
122.46606 1552.822 748 4291358463
123.2 1552.6899 746 4291490047
124.73395 1552.822 748 4291358975
125.86789 1552.822 748 4291358975
127.00183 1552.822 748 4291490303
128.13577 1552.822 748 4291490303
129.26973 1552.822 748 4291228159
130.61469 1552.8881 749 4291228159
131.75046 1552.8881 749 4291228159
132.88625 1552.8881 749 4291162367
134.23853 1552.9541 750 4290571007
135.37614 1552.9541 750 4290636799
136.73395 1553.0201 751 4290702079
137.8734 1553.0201 751 4290899455
139.01285 1553.0201 751 4290963967
140.1523 1553.0201 751 4291029759
141.29175 1553.0201 751 4291160831
-21.614679 1551.8165 750 4288254851
-20.444036 1551.7523 749 4287860354
-19.277063 1551.6881 748 4287991940
