# .PCD v0.7 - Point Cloud Data file format
VERSION 0.7
FIELDS x y z rgb
SIZE 4 4 4 4
TYPE F F F U
COUNT 1 1 1 1
WIDTH 1373
HEIGHT 1
VIEWPOINT 0 0 0 1 0 0 0
POINTS 1373
DATA ascii
52.755962 1599.9266 729 4284963654
53.855045 1599.9266 729 4284108345
54.954128 1599.9266 729 4285024025
56.053211 1599.9266 729 4285418783
57.152294 1599.9266 729 4285352988
58.251377 1599.9266 729 4285024023
59.35046 1599.9266 729 4285613316
60.449543 1599.9266 729 4284889600
61.548622 1599.9266 729 4284560896
62.647705 1599.9266 729 4285810707
63.640366 1599.7798 728 4286338568
64.737617 1599.7798 728 4288312358
65.834862 1599.7798 728 4289232419
67.044037 1599.9266 729 4294364273
68.256882 1600.0734 730 4294629549
69.473396 1600.2202 731 4294965967
70.693581 1600.3669 732 4294966216
71.798164 1600.3669 732 4294828977
73.144951 1600.6605 734 4294957987
74.253212 1600.6605 734 4293773456
75.611008 1600.9541 736 4293313939
76.849541 1601.101 737 4294761385
78.091743 1601.2477 738 4294633163
79.337616 1601.3945 739 4294963156
80.587158 1601.5413 740 4294964720
81.84037 1601.6881 741 4294965233
83.097244 1601.8348 742 4294966527
84.357796 1601.9817 743 4294966271
85.482567 1601.9817 743 4294374131
86.748627 1602.1284 744 4294834682
87.875229 1602.1284 744 4294966013
89.001831 1602.1284 744 4294966270
89.981651 1601.9817 743 4294899451
91.255043 1602.1284 744 4294899451
92.231194 1601.9817 743 4294768637
93.355965 1601.9817 743 4294966015
94.480736 1601.9817 743 4294373879
95.605507 1601.9817 743 4294505208
96.572479 1601.8348 742 4294767865
97.695412 1601.8348 742 4294767865
98.97982 1601.9817 743 4294767867
99.941284 1601.8348 742 4294767867
101.06422 1601.8348 742 4294636282
102.18716 1601.8348 742 4294373109
103.31009 1601.8348 742 4294240754
104.43303 1601.8348 742 4294174960
105.55596 1601.8348 742 4293846765
106.6789 1601.8348 742 4293846765
107.80183 1601.8348 742 4293583345
108.92477 1601.8348 742 4293451503
110.04771 1601.8348 742 4293715434
111.17064 1601.8348 742 4294373107
12.79633 1603.9009 764 4285552429
13.893578 1603.4661 761 4285422152
14.979816 1603.0312 758 4285619530
16.132111 1603.0312 758 4286607959
17.25688 1602.8862 757 4288055405
18.319265 1602.4514 754 4288645770
19.401834 1602.1615 752 4290159010
20.510092 1602.0165 751 4289633419
21.579817 1601.7266 749 4289633419
22.6789 1601.5817 748 4289172618
23.697248 1601.1467 745 4288580481
24.744955 1600.8569 743 4288579714
25.827522 1600.7119 742 4288448128
26.906422 1600.567 741 4288382855
27.981651 1600.422 740 4288448648
29.053211 1600.2771 739 4287593850
30.07156 1599.9872 737 4287462264
31.185322 1599.9872 737 4287528307
32.13945 1599.5522 734 4287660149
33.247707 1599.5522 734 4287594365
34.355965 1599.5522 734 4288120710
35.405506 1599.4073 733 4287922806
36.511925 1599.4073 733 4288119928
37.618347 1599.4073 733 4288513671
38.660549 1599.2623 732 4288579464
39.765137 1599.2623 732 4289766014
40.801834 1599.1174 731 4290160515
41.904587 1599.1174 731 4289370795
42.93578 1598.9725 730 4289370795
44.036697 1598.9725 730 4288250540
45.137615 1598.9725 730 4288118954
46.161469 1598.8275 729 4286735491
47.260551 1598.8275 729 4286011767
48.359634 1598.8275 729 4285683027
49.458717 1598.8275 729 4285288269
50.557796 1598.8275 729 4285027378
51.656879 1598.8275 729 4285093171
52.755962 1598.8275 729 4285356568
53.855045 1598.8275 729 4284764431
54.954128 1598.8275 729 4285484324
56.053211 1598.8275 729 4285747496
57.152294 1598.8275 729 4285286943
58.251377 1598.8275 729 4285155356
59.35046 1598.8275 729 4285154832
60.550457 1598.9725 730 4284628232
61.548622 1598.8275 729 4284627993
62.647705 1598.8275 729 4285746731
63.746788 1598.8275 729 4286666517
64.845871 1598.8275 729 4287324448
65.944954 1598.8275 729 4288968704
67.15596 1598.9725 730 4288837120
68.370644 1599.1174 731 4290346507
69.473396 1599.1174 731 4291530782
70.811012 1599.4073 733 4292716389
72.036697 1599.5522 734 4294955150
73.387154 1599.8422 736 4294299555
74.622017 1599.9872 737 4293444246
75.86055 1600.1321 738 4293970801
76.976151 1600.1321 738 4294958725
78.091743 1600.1321 738 4294955916
79.467888 1600.422 740 4294889866
80.719269 1600.567 741 4294040267
81.974312 1600.7119 742 4294763990
83.233025 1600.8569 743 4294635763
84.495415 1601.0018 744 4294966783
85.622017 1601.0018 744 4294966522
86.748627 1601.0018 744 4294966265
87.875229 1601.0018 744 4294966269
89.001831 1601.0018 744 4294966269
89.981651 1600.8569 743 4294966013
91.106422 1600.8569 743 4294967295
92.231194 1600.8569 743 4294967295
93.355965 1600.8569 743 4294967295
94.480736 1600.8569 743 4294832895
95.449539 1600.7119 742 4294767102
96.572479 1600.7119 742 4294767867
97.695412 1600.7119 742 4294767867
98.818352 1600.7119 742 4294636536
99.941284 1600.7119 742 4294833658
101.06422 1600.7119 742 4294636536
102.18716 1600.7119 742 4294110191
103.14128 1600.567 741 4293715432
104.26238 1600.567 741 4293846761
105.55596 1600.7119 742 4293912558
106.6789 1600.7119 742 4294109938
107.80183 1600.7119 742 4293846261
108.92477 1600.7119 742 4293846261
109.86789 1600.567 741 4293715432
110.98899 1600.567 741 4294175983
12.816514 1602.8807 765 4285945892
13.959633 1602.7377 764 4285486386
15.07523 1602.4514 762 4285354544
16.183487 1602.1652 760 4285749813
17.25688 1601.7358 757 4286144315
18.348623 1601.4496 755 4286998624
19.46422 1601.3064 754 4288380021
20.510092 1600.8771 751 4288513408
21.614679 1600.7339 750 4289960854
22.6789 1600.4478 748 4290684576
23.735781 1600.1615 746 4290092183
24.78532 1599.8752 744 4290025617
25.869724 1599.7321 743 4289433224
26.994495 1599.7321 743 4289106058
28.073395 1599.589 742 4288645507
29.053211 1599.1597 739 4287857022
30.170643 1599.1597 739 4287725693
31.236698 1599.0165 738 4288119676
32.299084 1598.8734 737 4287922554
33.412846 1598.8734 737 4287856509
34.469727 1598.7302 736 4288251266
35.464222 1598.4441 734 4288513408
36.572475 1598.4441 734 4288710530
37.618347 1598.3009 733 4290221975
38.72477 1598.3009 733 4290221975
39.831192 1598.3009 733 4290554017
40.869724 1598.1578 732 4289961880
41.904587 1598.0146 731 4288910746
43.007339 1598.0146 731 4288318352
44.036697 1597.8716 730 4286150531
45.137615 1597.8716 730 4285361016
46.238533 1597.8716 730 4285422165
47.339451 1597.8716 730 4284632650
48.440369 1597.8716 730 4285352495
49.458717 1597.7284 729 4285550131
50.557796 1597.7284 729 4285616687
51.656879 1597.7284 729 4285353772
52.844036 1597.8716 730 4285288478
53.944954 1597.8716 730 4285288478
55.045872 1597.8716 730 4285681699
56.053211 1597.7284 729 4285681699
57.152294 1597.7284 729 4285024275
58.251377 1597.7284 729 4284958482
59.449543 1597.8716 730 4285481728
60.550457 1597.8716 730 4285021184
61.651375 1597.8716 730 4284495892
62.752293 1597.8716 730 4285811751
63.85321 1597.8716 730 4286601245
65.062386 1598.0146 731 4287588140
66.165138 1598.0146 731 4288377113
67.267891 1598.0146 731 4288311063
68.370644 1598.0146 731 4288440837
69.70459 1598.3009 733 4288112128
70.928444 1598.4441 734 4290280710
72.27523 1598.7302 736 4291004690
73.508255 1598.8734 737 4292191851
74.744957 1599.0165 738 4292783731
75.86055 1599.0165 738 4294427768
77.102753 1599.1597 739 4294955654
78.220184 1599.1597 739 4294954886
79.598167 1599.4459 741 4294958484
80.851379 1599.589 742 4294959573
81.974312 1599.589 742 4294960857
83.368805 1599.8752 744 4294567379
84.495415 1599.8752 744 4294962908
85.622017 1599.8752 744 4294965487
86.889908 1600.0183 745 4294966259
87.875229 1599.8752 744 4294966526
89.001831 1599.8752 744 4294966526
89.981651 1599.7321 743 4294768635
91.106422 1599.7321 743 4294768635
92.231194 1599.7321 743 4294965246
93.355965 1599.7321 743 4294965246
94.326607 1599.589 742 4294964733
95.449539 1599.589 742 4294767354
96.572479 1599.589 742 4294767867
97.695412 1599.589 742 4294570488
98.818352 1599.589 742 4294438902
99.941284 1599.589 742 4294570488
100.89909 1599.4459 741 4294570740
102.02018 1599.4459 741 4293846761
103.14128 1599.4459 741 4292991454
104.26238 1599.4459 741 4293715434
105.55596 1599.589 742 4293846763
106.50459 1599.4459 741 4293715434
107.62569 1599.4459 741 4293188586
108.74679 1599.4459 741 4293188586
109.86789 1599.4459 741 4293386212
110.80734 1599.3027 740 4293517798
111.92661 1599.3027 740 4293715180
113.04587 1599.3027 740 4293649387
11.706422 1602.1394 768 4286601504
12.836698 1601.8569 766 4286338588
13.959633 1601.5743 764 4286011935
15.07523 1601.2917 762 4286077729
16.234863 1601.2917 762 4285354021
17.449541 1601.5743 764 4285222179
18.407339 1600.5853 757 4285353520
19.495413 1600.3027 755 4285287726
20.609175 1600.1615 754 4285878341
21.614679 1599.5963 750 4286141514
22.715597 1599.4551 749 4286470740
23.735781 1599.0312 746 4286734169
24.825687 1598.8899 745 4286670172
25.954128 1598.8899 745 4286801758
27.038532 1598.7487 744 4286868328
28.119267 1598.6073 743 4287328879
29.196331 1598.4661 742 4287066993
30.170643 1598.0422 739 4287066993
31.288073 1598.0422 739 4287198828
32.352295 1597.9009 738 4287198828
33.467892 1597.9009 738 4287197552
34.526604 1597.7596 737 4287131503
35.640366 1597.7596 737 4286669929
36.693577 1597.6184 736 4286472807
37.805504 1597.6184 736 4286471510
38.78899 1597.3358 734 4286142544
39.897247 1597.3358 734 4285945166
41.005505 1597.3358 734 4285353029
42.044037 1597.1945 733 4285026367
43.078899 1597.0532 732 4285289282
44.110092 1596.9119 731 4284960808
45.212845 1596.9119 731 4284171036
46.238533 1596.7706 730 4284893216
47.41835 1596.9119 731 4285287974
48.440369 1596.7706 730 4285484574
49.541283 1596.7706 730 4285879332
50.6422 1596.7706 730 4285879593
51.743118 1596.7706 730 4285813800
52.844036 1596.7706 730 4285682469
53.944954 1596.7706 730 4285682469
55.137615 1596.9119 731 4285879582
56.14679 1596.7706 730 4285945375
57.247707 1596.7706 730 4285747481
58.348625 1596.7706 730 4284826379
59.548622 1596.9119 731 4284890880
60.651375 1596.9119 731 4284890880
61.754128 1596.9119 731 4284495892
62.961468 1597.0532 732 4284956443
63.959633 1596.9119 731 4286139919
65.170639 1597.0532 732 4286337555
66.27523 1597.0532 732 4287258396
67.379814 1597.0532 732 4287652897
68.598167 1597.1945 733 4288704306
69.820183 1597.3358 734 4289033271
71.1633 1597.6184 736 4289296162
72.394493 1597.7596 737 4289559333
73.629356 1597.9009 738 4289560619
74.867889 1598.0422 739 4289560619
75.985321 1598.0422 739 4291005220
77.229355 1598.1835 740 4291334184
78.348625 1598.1835 740 4293043548
79.728439 1598.4661 742 4294965937
80.98349 1598.6073 743 4294967292
82.108253 1598.6073 743 4294967294
83.504585 1598.8899 745 4294960043
84.633026 1598.8899 745 4293972891
85.761467 1598.8899 745 4294896330
86.889908 1598.8899 745 4294965207
87.875229 1598.7487 744 4294966783
89.001831 1598.7487 744 4294967295
89.981651 1598.6073 743 4294966269
91.106422 1598.6073 743 4294768633
92.231194 1598.6073 743 4294702844
93.355965 1598.6073 743 4294636795
94.480736 1598.6073 743 4294635765
95.605507 1598.6073 743 4294109421
96.572479 1598.4661 742 4294307316
97.695412 1598.4661 742 4294175731
98.818352 1598.4661 742 4294438389
99.777985 1598.3247 741 4294174960
100.89909 1598.3247 741 4293846248
102.02018 1598.3247 741 4293714661
102.97248 1598.1835 740 4293452007
104.09174 1598.1835 740 4293846765
105.55596 1598.4661 742 4293846763
106.50459 1598.3247 741 4293715434
107.62569 1598.3247 741 4293122790
108.74679 1598.3247 741 4293056997
109.68807 1598.1835 740 4293253858
110.80734 1598.1835 740 4293648616
111.92661 1598.1835 740 4293517800
113.04587 1598.1835 740 4293517800
113.97798 1598.0422 739 4293978349
11.669724 1600.6899 766 4286600991
12.836698 1600.6899 766 4286140440
13.959633 1600.411 764 4286139156
15.07523 1600.1321 762 4286270998
16.209175 1599.9927 761 4286205735
17.366972 1599.9927 761 4286205735
18.495413 1599.8533 760 4285813298
19.557798 1599.4348 757 4285550383
20.642202 1599.156 755 4285353520
21.684404 1598.7377 752 4285221933
22.78899 1598.5981 751 4284959786
23.889908 1598.4587 750 4285025835
24.866055 1597.9009 746 4285158453
25.954128 1597.7615 745 4285158453
27.038532 1597.6221 744 4285355329
28.119267 1597.4825 743 4285486916
29.196331 1597.3431 742 4285552707
30.319265 1597.3431 742 4285552707
31.390825 1597.2036 741 4285618756
32.405506 1596.9248 739 4285552707
33.522934 1596.9248 739 4285617984
34.583485 1596.7853 738 4285617984
35.699081 1596.7853 738 4285617734
36.814678 1596.7853 738 4285222976
37.867889 1596.6459 737 4285156922
38.981651 1596.6459 737 4285156922
40.029358 1596.5065 736 4285222965
41.141285 1596.5065 736 4284762414
42.113762 1596.2275 734 4285090345
43.150459 1596.0881 733 4285353518
44.256882 1596.0881 733 4285812772
45.288074 1595.9486 732 4285483806
46.315598 1595.8092 731 4285286161
47.49725 1595.9486 732 4286009885
48.521099 1595.8092 731 4286009896
49.623852 1595.8092 731 4286075945
50.726604 1595.8092 731 4286141748
51.829357 1595.8092 731 4286075954
53.020184 1595.9486 732 4286403357
54.124771 1595.9486 732 4286403357
55.229359 1595.9486 732 4285945377
56.240368 1595.8092 731 4286142500
57.438534 1595.9486 732 4286274088
58.543118 1595.9486 732 4285287193
59.746788 1596.0881 733 4284890372
60.85321 1596.0881 733 4284956165
61.959633 1596.0881 733 4284825879
63.066055 1596.0881 733 4284825879
64.172478 1596.0881 733 4284563724
65.2789 1596.0881 733 4284958482
66.495415 1596.2275 734 4286074649
67.603668 1596.2275 734 4286798115
68.939453 1596.5065 736 4287717411
70.166969 1596.6459 737 4288770099
71.398163 1596.7853 738 4288639528
72.633026 1596.9248 739 4288836908
73.750458 1596.9248 739 4289100077
74.867889 1596.9248 739 4288968748
76.110092 1597.0642 740 4289559331
77.355965 1597.2036 741 4288704023
78.605507 1597.3431 742 4291133952
79.858719 1597.4825 743 4294959450
81.115593 1597.6221 744 4294964966
82.376144 1597.7615 745 4294963681
83.640366 1597.9009 746 4294959792
84.770645 1597.9009 746 4293708184
85.900917 1597.9009 746 4293248146
86.889908 1597.7615 745 4294629799
88.018349 1597.7615 745 4294961373
89.001831 1597.6221 744 4294964971
89.834862 1597.3431 742 4294967039
91.106422 1597.4825 743 4294768633
92.231194 1597.4825 743 4294571256
93.355965 1597.4825 743 4294373877
94.480736 1597.4825 743 4294307316
95.605507 1597.4825 743 4294044144
96.572479 1597.3431 742 4294372596
97.695412 1597.3431 742 4294306803
98.818352 1597.3431 742 4294701304
99.777985 1597.2036 741 4294240754
100.89909 1597.2036 741 4293714148
102.02018 1597.2036 741 4293714148
103.14128 1597.2036 741 4293517798
104.26238 1597.2036 741 4293649641
105.38348 1597.2036 741 4293715434
106.50459 1597.2036 741 4293649641
107.62569 1597.2036 741 4293253860
108.74679 1597.2036 741 4293253860
109.68807 1597.0642 740 4293253345
110.80734 1597.0642 740 4293385188
111.92661 1597.0642 740 4293056738
113.04587 1597.0642 740 4293451240
113.97798 1596.9248 739 4294175985
115.09541 1596.9248 739 4294307314
12.836698 1599.5229 766 4285811463
13.915596 1598.9725 762 4286007068
15.07523 1598.9725 762 4286007068
16.209175 1598.8348 761 4285745436
17.366972 1598.8348 761 4285745436
18.495413 1598.6973 760 4285417507
19.557798 1598.2844 757 4285220384
20.642202 1598.0092 755 4285418009
21.78899 1598.0092 755 4285813024
22.899082 1597.8716 754 4285616648
23.92844 1597.4587 751 4285748234
24.987156 1597.1835 749 4285289743
25.99633 1596.7706 746 4284632070
27.082569 1596.6331 745 4284106517
28.165138 1596.4954 744 4283185415
29.244038 1596.3578 743 4283579155
30.319265 1596.2202 742 4284631587
31.442202 1596.2202 742 4284828186
32.511925 1596.0825 741 4284828186
33.633026 1596.0825 741 4285091624
34.640366 1595.8074 739 4285486382
35.757797 1595.8074 739 4285025831
36.814678 1595.6697 738 4284960038
37.867889 1595.5321 737 4285025835
38.981651 1595.5321 737 4285025835
40.029358 1595.3945 736 4285485603
41.209175 1595.5321 737 4285485603
42.253212 1595.3945 736 4285485076
43.222019 1595.1193 734 4285682198
44.330276 1595.1193 734 4285878297
45.438534 1595.1193 734 4285746710
46.469727 1594.9817 733 4285681185
47.576145 1594.9817 733 4286075943
48.601833 1594.844 732 4286009896
49.706421 1594.844 732 4286075945
50.811008 1594.844 732 4286141496
51.915596 1594.844 732 4285944373
53.108257 1594.9817 733 4285944596
54.21468 1594.9817 733 4286207511
55.321102 1594.9817 733 4286076193
56.427525 1594.9817 733 4286405158
57.533943 1594.9817 733 4286340133
58.737614 1595.1193 734 4285484824
59.845871 1595.1193 734 4284694820
60.954128 1595.1193 734 4284497440
62.062386 1595.1193 734 4284563484
63.170643 1595.1193 734 4284695326
64.2789 1595.1193 734 4284695326
65.387154 1595.1193 734 4284695326
66.715599 1595.3945 736 4284891937
67.939453 1595.5321 737 4284431386
69.166969 1595.6697 738 4286073344
70.398163 1595.8074 739 4286862852
71.515594 1595.8074 739 4286797074
72.871559 1596.0825 741 4287323418
73.871559 1595.9449 740 4288047909
74.990829 1595.9449 740 4288903218
76.234863 1596.0825 741 4288902201
77.482567 1596.2202 742 4288375857
78.733948 1596.3578 743 4289162497
79.988991 1596.4954 744 4289228290
81.247704 1596.6331 745 4289952031
82.510094 1596.7706 746 4290544169
83.640366 1596.7706 746 4290152756
84.770645 1596.7706 746 4289955121
85.900917 1596.7706 746 4289627959
93.203667 1596.2202 742 4293912806
94.326607 1596.2202 742 4293978099
95.605507 1596.3578 743 4293846513
96.572479 1596.2202 742 4293649387
97.695412 1596.2202 742 4293517800
98.818352 1596.2202 742 4293977838
99.777985 1596.0825 741 4294109167
100.89909 1596.0825 741 4293583593
102.02018 1596.0825 741 4293452007
103.14128 1596.0825 741 4293518052
104.09174 1595.9449 740 4293583845
105.38348 1596.0825 741 4293517287
106.50459 1596.0825 741 4293385701
107.62569 1596.0825 741 4293451494
108.74679 1596.0825 741 4293517287
109.68807 1595.9449 740 4293318888
110.80734 1595.9449 740 4293647853
111.92661 1595.9449 740 4293385960
113.04587 1595.9449 740 4293254631
114.16514 1595.9449 740 4293978603
115.09541 1595.8074 739 4294175983
11.669724 1598.356 766 4285940480
12.836698 1598.356 766 4286138113
13.959633 1598.0844 764 4285809944
15.122936 1598.0844 764 4286073115
16.234863 1597.8129 762 4286073363
17.366972 1597.677 761 4286073363
18.495413 1597.5413 760 4285678868
19.557798 1597.1339 757 4285810455
20.708258 1597.1339 757 4285745436
21.78899 1596.8624 755 4285876765
22.93578 1596.8624 755 4286140425
23.966972 1596.4551 752 4286140425
25.027523 1596.1835 750 4285551385
26.080734 1595.9119 748 4285156627
27.21468 1595.9119 748 4284107282
28.25688 1595.6404 746 4283186180
29.339449 1595.5046 745 4283580424
30.418348 1595.3688 744 4284106769
31.493578 1595.233 743 4285091083
32.565136 1595.0973 742 4285354255
33.688072 1595.0973 742 4285354273
34.754128 1594.9614 741 4285288224
35.816513 1594.8257 740 4285288228
36.93578 1594.8257 740 4285288228
37.992661 1594.6899 739 4285484837
39.045872 1594.5541 738 4285484837
40.095413 1594.4183 737 4285616655
41.209175 1594.4183 737 4285748498
42.253212 1594.2826 736 4285747996
43.365139 1594.2826 736 4285747996
44.477066 1594.2826 736 4285351956
45.438534 1594.011 734 4285944094
46.546787 1594.011 734 4286010398
47.655045 1594.011 734 4286010398
48.682568 1593.8752 733 4285879582
49.78899 1593.8752 733 4286340133
50.895412 1593.8752 733 4286209078
52.001835 1593.8752 733 4285945650
53.196331 1594.011 734 4286010904
54.304588 1594.011 734 4286142490
55.412846 1594.011 734 4286208031
56.521099 1594.011 734 4286865961
57.629356 1594.011 734 4286407475
58.737614 1594.011 734 4285354787
59.845871 1594.011 734 4284893982
61.155964 1594.2826 736 4283907086
62.267891 1594.2826 736 4284169228
63.484406 1594.4183 737 4284366606
64.598167 1594.4183 737 4284628234
65.711929 1594.4183 737 4284694027
66.825691 1594.4183 737 4284628234
68.051376 1594.5541 738 4284430854
69.280731 1594.6899 739 4285548032
70.513763 1594.8257 740 4285679872
71.633026 1594.8257 740 4285286656
72.871559 1594.9614 741 4286010370
73.992661 1594.9614 741 4287455268
75.236694 1595.0973 742 4287850026
76.484406 1595.233 743 4287979813
77.609177 1595.233 743 4288440364
79.119263 1595.6404 746 4288969259
80.249542 1595.6404 746 4288574501
81.644035 1595.9119 748 4288508708
82.777985 1595.9119 748 4288311329
83.911926 1595.9119 748 4289034521
96.572479 1595.0973 742 4293649387
97.535782 1594.9614 741 4293715180
98.818352 1595.0973 742 4293715434
99.777985 1594.9614 741 4293715434
100.89909 1594.9614 741 4293386984
102.02018 1594.9614 741 4293386984
102.97248 1594.8257 740 4293846761
104.09174 1594.8257 740 4293912810
105.38348 1594.9614 741 4293648355
106.50459 1594.9614 741 4293648355
107.62569 1594.9614 741 4293648103
108.56881 1594.8257 740 4293385188
109.68807 1594.8257 740 4293055714
110.62569 1594.6899 739 4293647851
111.92661 1594.8257 740 4293255144
113.04587 1594.8257 740 4293123558
114.16514 1594.8257 740 4293386214
115.2844 1594.8257 740 4294109938
116.78532 1595.0973 742 4294044144
118.10091 1595.233 743 4294307316
11.669724 1597.189 766 4285744682
12.836698 1597.189 766 4286599991
13.981651 1597.0551 765 4286337568
15.122936 1596.9211 764 4286205983
16.286238 1596.9211 764 4286403863
17.394495 1596.6532 762 4286535449
18.554129 1596.6532 762 4286010398
19.620184 1596.2513 759 4286010398
20.741285 1596.1174 758 4285746979
21.858715 1595.9835 757 4284825877
22.93578 1595.7156 755 4285155332
23.966972 1595.3137 752 4285747212
25.027523 1595.0459 750 4285747212
26.080734 1594.778 748 4285747212
27.21468 1594.778 748 4285026576
28.348623 1594.778 748 4284960527
29.387156 1594.5101 746 4284172062
30.46789 1594.3761 745 4284040220
31.493578 1594.1083 743 4285288199
32.618347 1594.1083 743 4285419785
33.743118 1594.1083 743 4285616405
34.811008 1593.9744 742 4285485076
35.875229 1593.8403 741 4285419294
36.99633 1593.8403 741 4285419294
38.055046 1593.7064 740 4285878802
39.174313 1593.7064 740 4285878802
40.227524 1593.5725 739 4285616133
41.277065 1593.4385 738 4286010891
42.322937 1593.3046 737 4285944855
43.365139 1593.1707 736 4285747732
44.550457 1593.3046 737 4285615140
45.588989 1593.1707 736 4286207534
46.700916 1593.1707 736 4286009896
47.655045 1592.9027 734 4285812774
48.763302 1592.9027 734 4286142238
49.871559 1592.9027 734 4286273825
50.979816 1592.9027 734 4286142751
52.260551 1593.1707 736 4285879836
53.196331 1592.9027 734 4286010650
54.304588 1592.9027 734 4286142236
55.412846 1592.9027 734 4286208545
56.708256 1593.1707 736 4286866731
57.820183 1593.1707 736 4286735906
58.93211 1593.1707 736 4286078233
60.044037 1593.1707 736 4285418792
61.155964 1593.1707 736 4285089828
62.370644 1593.3046 737 4285155604
63.484406 1593.3046 737 4284892689
64.70459 1593.4385 738 4285347846
65.820183 1593.4385 738 4285611017
66.935783 1593.4385 738 4284952576
68.1633 1593.5725 739 4284754944
69.280731 1593.5725 739 4283838208
70.513763 1593.7064 740 4283838208
71.750458 1593.8403 741 4284233216
72.990829 1593.9744 742 4284759552
74.113762 1593.9744 742 4285350912
75.359634 1594.1083 743 4285745664
76.484406 1594.1083 743 4286007568
77.862389 1594.3761 745 4287126305
79.376144 1594.778 748 4287391006
80.640366 1594.9119 749 4287719971
81.776146 1594.9119 749 4287851557
102.02018 1593.8403 741 4293583591
103.14128 1593.8403 741 4293846761
104.09174 1593.7064 740 4293912810
105.38348 1593.8403 741 4293912295
106.33028 1593.7064 740 4294109417
107.44954 1593.7064 740 4293451240
108.56881 1593.7064 740 4293319654
109.68807 1593.7064 740 4293319656
110.62569 1593.5725 739 4293385449
111.74312 1593.5725 739 4293386214
113.04587 1593.7064 740 4293386214
113.97798 1593.5725 739 4293517287
115.66238 1593.9744 742 4293912045
116.78532 1593.9744 742 4293648103
118.10091 1594.1083 743 4293582310
119.22569 1594.1083 743 4293517289
120.35046 1594.1083 743 4293780205
11.669724 1596.022 766 4286139942
14.00367 1596.022 766 4286141998
15.146789 1595.8899 765 4286207791
16.311926 1595.8899 765 4286077479
17.449541 1595.7578 764 4285879843
18.612844 1595.7578 764 4285945377
19.651377 1595.2294 760 4285945377
20.774311 1595.0973 759 4285681699
21.893578 1594.9651 758 4285286941
22.93578 1594.5688 755 4285679368
24.005505 1594.3046 753 4285811211
25.06789 1594.0404 751 4286008853
26.122936 1593.7761 749 4286140440
27.258715 1593.7761 749 4285681185
28.348623 1593.644 748 4285483806
29.482569 1593.644 748 4284565523
30.46789 1593.2477 745 4284433681
31.544954 1593.1156 744 4285353992
32.618347 1592.9835 743 4285616907
33.743118 1592.9835 743 4285746964
34.811008 1592.8513 742 4285615379
35.933945 1592.8513 742 4285681185
37.056881 1592.8513 742 4285681185
38.117432 1592.7192 741 4286074898
39.238533 1592.7192 741 4286206485
40.359634 1592.7192 741 4285943301
41.412846 1592.5872 740 4286337803
42.462387 1592.4551 739 4285944855
43.508255 1592.323 738 4285747732
44.623852 1592.323 738 4285746979
45.664219 1592.1908 737 4286075943
46.777981 1592.1908 737 4285943851
47.812843 1592.0587 736 4285812522
48.92477 1592.0587 736 4286469919
50.036697 1592.0587 736 4286601506
51.317432 1592.323 738 4286076193
52.433029 1592.323 738 4285944607
53.460552 1592.1908 737 4286337818
54.57431 1592.1908 737 4286469404
55.688072 1592.1908 737 4286469656
56.801834 1592.1908 737 4287390758
57.915596 1592.1908 737 4287129133
59.029358 1592.1908 737 4286405410
60.14312 1592.1908 737 4286599709
61.256882 1592.1908 737 4286928674
62.473396 1592.323 738 4286798135
63.588989 1592.323 738 4286732342
64.70459 1592.323 738 4287256651
65.928444 1592.4551 739 4288309339
67.045868 1592.4551 739 4288376175
68.1633 1592.4551 739 4287126108
69.394493 1592.5872 740 4285288019
70.629356 1592.7192 741 4283511609
71.867889 1592.8513 742 4283507456
72.990829 1592.8513 742 4284428554
74.234863 1592.9835 743 4284626435
75.359634 1592.9835 743 4284823814
76.609177 1593.1156 744 4284431872
77.988991 1593.3798 746 4285616131
79.376144 1593.644 748 4286010639
80.640366 1593.7761 749 4286536983
81.908257 1593.9082 750 4287390504
83.045868 1593.9082 750 4287390504
103.14128 1592.7192 741 4293583843
104.09174 1592.5872 740 4293583843
105.21101 1592.5872 740 4293583845
106.33028 1592.5872 740 4293649638
107.44954 1592.5872 740 4293254631
108.56881 1592.5872 740 4293188838
109.50826 1592.4551 739 4293254633
110.62569 1592.4551 739 4293188840
111.92661 1592.5872 740 4293319654
113.04587 1592.5872 740 4293253860
114.35229 1592.7192 741 4293385188
115.66238 1592.8513 742 4293516517
116.78532 1592.8513 742 4293516004
118.10091 1592.9835 743 4293581797
119.22569 1592.9835 743 4293648103
120.35046 1592.9835 743 4293648103
121.47523 1592.9835 743 4293715180
14.047707 1595.1156 768 4286141998
15.170642 1594.8551 766 4286076204
16.311926 1594.7247 765 4286076193
17.477064 1594.7247 765 4286076193
18.642202 1594.7247 765 4286142238
19.713762 1594.334 762 4286668582
20.807339 1594.0734 760 4285681185
21.92844 1593.9431 759 4285483806
22.93578 1593.422 755 4285678868
24.044037 1593.2917 754 4285744662
25.108257 1593.0312 752 4285679641
26.122936 1592.6404 749 4286140192
27.258715 1592.6404 749 4285813007
28.348623 1592.5101 748 4285286663
29.482569 1592.5101 748 4284827677
30.517431 1592.2495 746 4285024800
31.647707 1592.2495 746 4285419281
32.671558 1591.989 744 4285682452
33.798164 1591.989 744 4285746964
34.867889 1591.8588 743 4285746964
35.933945 1591.7284 742 4285615905
37.056881 1591.7284 742 4285615905
38.179817 1591.7284 742 4285747481
39.302753 1591.7284 742 4286010652
40.359634 1591.5981 741 4286140694
41.480736 1591.5981 741 4286140694
42.532108 1591.4679 740 4286206237
43.579815 1591.3376 739 4286074395
44.697247 1591.3376 739 4285812772
45.739449 1591.2073 738 4286404908
46.855045 1591.2073 738 4285682219
47.891743 1591.077 737 4285616426
49.086239 1591.2073 738 4285945377
50.201836 1591.2073 738 4286734893
51.401836 1591.3376 739 4286208545
52.519264 1591.3376 739 4285813787
53.548622 1591.2073 738 4286010904
54.664219 1591.2073 738 4286142490
55.779816 1591.2073 738 4286601504
56.895412 1591.2073 738 4287193897
58.011009 1591.2073 738 4286997295
59.126606 1591.2073 738 4287194931
60.242203 1591.2073 738 4287655228
61.3578 1591.2073 738 4288707659
62.576145 1591.3376 739 4288641895
63.693577 1591.3376 739 4289168239
64.811012 1591.3376 739 4289957524
65.928444 1591.3376 739 4294958820
67.045868 1591.3376 739 4294962936
68.27523 1591.4679 740 4294962936
69.508255 1591.5981 741 4294503651
70.744957 1591.7284 742 4291214000
71.867889 1591.7284 742 4289961617
73.110092 1591.8588 743 4287066725
74.234863 1591.8588 743 4284433224
75.482567 1591.989 744 4282196262
76.733948 1592.1193 745 4283445504
78.242203 1592.5101 748 4284892937
79.504585 1592.6404 749 4285418529
80.770645 1592.7706 750 4285418529
82.040367 1592.9009 751 4286206487
83.179817 1592.9009 751 4286864160
105.38348 1591.5981 741 4293452259
106.33028 1591.4679 740 4293583845
107.44954 1591.4679 740 4293254629
108.56881 1591.4679 740 4293386214
109.68807 1591.4679 740 4293122792
110.80734 1591.4679 740 4293056999
112.11009 1591.5981 741 4293056999
113.23119 1591.5981 741 4292991206
114.53945 1591.7284 742 4292991204
115.66238 1591.7284 742 4293188840
116.78532 1591.7284 742 4293188838
118.10091 1591.8588 743 4293188838
119.22569 1591.8588 743 4293254633
120.35046 1591.8588 743 4293188840
121.47523 1591.8588 743 4293385960
14.047707 1593.9449 768 4286207793
15.170642 1593.6881 766 4286076206
16.337614 1593.6881 766 4285746964
17.477064 1593.5596 765 4286075930
18.642202 1593.5596 765 4286468893
19.776146 1593.4312 764 4286666015
20.840366 1593.0459 761 4285942558
21.963303 1592.9175 760 4285745436
23.045872 1592.6605 758 4285745436
24.082569 1592.2753 755 4285416214
25.148624 1592.0183 753 4285022490
26.20734 1591.7615 751 4285812005
27.346788 1591.7615 751 4285748777
28.486238 1591.7615 751 4284893468
29.482569 1591.3761 748 4285090050
30.616514 1591.3761 748 4285484808
31.647707 1591.1193 746 4285615633
32.777981 1591.1193 746 4285812755
33.85321 1590.9908 745 4285878800
34.92477 1590.8624 744 4285878800
35.992661 1590.7339 743 4285682201
37.117432 1590.7339 743 4285485078
38.242203 1590.7339 743 4285682201
39.366974 1590.7339 743 4285813787
40.42569 1590.6055 742 4286206237
41.548622 1590.6055 742 4286337566
42.601833 1590.4771 741 4286337818
43.722935 1590.4771 741 4286337818
44.770641 1590.3486 740 4285813274
45.814678 1590.2202 739 4286076445
46.93211 1590.2202 739 4285288228
48.049541 1590.2202 739 4285354021
49.166973 1590.2202 739 4285617191
50.284405 1590.2202 739 4286077742
51.401836 1590.2202 739 4286142768
52.519264 1590.2202 739 4285813802
53.636696 1590.2202 739 4285878800
54.754128 1590.2202 739 4286273558
55.871559 1590.2202 739 4286799398
56.988991 1590.2202 739 4287128363
58.106422 1590.2202 739 4286997043
59.223854 1590.2202 739 4287589437
60.341286 1590.2202 739 4287328073
61.458717 1590.2202 739 4288183382
62.576145 1590.2202 739 4288379743
63.693577 1590.2202 739 4289235052
64.917435 1590.3486 740 4290156181
66.036697 1590.3486 740 4294962154
67.15596 1590.3486 740 4294967295
68.387154 1590.4771 741 4294967295
69.508255 1590.4771 741 4294967295
70.744957 1590.6055 742 4294438389
71.985321 1590.7339 743 4292135634
73.110092 1590.7339 743 4289767086
74.355965 1590.8624 744 4288250513
75.605507 1590.9908 745 4284105554
76.858719 1591.1193 746 4283640348
78.368805 1591.5046 749 4284166692
79.633026 1591.6331 750 4284166912
80.900917 1591.7615 751 4285022210
82.040367 1591.7615 751 4285284352
83.179817 1591.7615 751 4285679107
105.55596 1590.6055 742 4293452007
106.50459 1590.4771 741 4293386214
107.62569 1590.4771 741 4293121759
108.74679 1590.4771 741 4293385188
109.86789 1590.4771 741 4293188065
110.80734 1590.3486 740 4293188065
112.11009 1590.4771 741 4292991202
113.23119 1590.4771 741 4292991202
114.53945 1590.6055 742 4292728546
115.66238 1590.6055 742 4292860388
116.78532 1590.6055 742 4292992742
118.10091 1590.7339 743 4292926692
119.22569 1590.7339 743 4293123558
120.35046 1590.7339 743 4293057764
121.47523 1590.7339 743 4292794082
122.6 1590.7339 743 4293188840
15.170642 1592.5211 766 4286010652
16.337614 1592.5211 766 4286009896
17.504587 1592.5211 766 4285944103
18.642202 1592.3945 765 4286205983
19.776146 1592.2679 764 4286337568
20.840366 1591.8881 761 4285680933
21.963303 1591.7615 760 4285615140
23.082569 1591.6349 759 4285483804
24.159634 1591.3816 757 4285220888
25.188992 1591.0018 754 4285023785
26.333944 1591.0018 754 4285155371
27.390825 1590.7487 752 4285090584
28.53211 1590.7487 752 4284630033
29.530275 1590.3688 749 4284827648
30.616514 1590.2422 748 4285419783
31.750458 1590.2422 748 4286139919
32.884403 1590.2422 748 4286008590
33.908257 1589.989 746 4286140425
34.92477 1589.7358 744 4286206218
36.051376 1589.7358 744 4285682450
37.177982 1589.7358 744 4285814293
38.242203 1589.6091 743 4285747481
39.366974 1589.6091 743 4285681687
40.491745 1589.6091 743 4286074649
41.548622 1589.4825 742 4286206235
42.671558 1589.4825 742 4286338068
43.794495 1589.4825 742 4286206739
44.844036 1589.356 741 4285944605
45.965137 1589.356 741 4286010398
47.086239 1589.356 741 4285747994
48.20734 1589.356 741 4285879836
49.328442 1589.356 741 4285813550
50.449543 1589.356 741 4285945136
51.570641 1589.356 741 4286142518
52.605503 1589.2294 740 4285879345
53.72477 1589.2294 740 4285944103
54.844036 1589.2294 740 4286536496
55.963303 1589.2294 740 4286799398
56.988991 1589.1028 739 4286997034
58.106422 1589.1028 739 4287326778
59.321102 1589.2294 740 4287589950
60.341286 1589.1028 739 4287655504
61.559631 1589.2294 740 4288313435
62.678898 1589.2294 740 4288115801
63.798164 1589.2294 740 4289629296
64.917435 1589.2294 740 4289961108
66.144951 1589.356 741 4294964203
67.266052 1589.356 741 4294967295
68.499084 1589.4825 742 4294967295
69.622017 1589.4825 742 4294967295
70.86055 1589.6091 743 4294967295
72.102753 1589.7358 744 4294967295
73.229355 1589.7358 744 4294967039
74.477066 1589.8624 745 4294966261
75.728439 1589.989 746 4291938754
77.108253 1590.2422 748 4289700759
78.622017 1590.6221 751 4283976768
79.633026 1590.4954 750 4283315968
80.900917 1590.6221 751 4283447552
82.172478 1590.7487 752 4284825879
83.313759 1590.7487 752 4285154843
84.862389 1591.1284 755 4285679872
107.80183 1589.4825 742 4293253858
108.74679 1589.356 741 4293846252
109.68807 1589.2294 740 4293451996
110.80734 1589.2294 740 4293517789
112.11009 1589.356 741 4293319652
113.23119 1589.356 741 4293253858
114.35229 1589.356 741 4293056736
115.66238 1589.4825 742 4293056736
116.78532 1589.4825 742 4292990689
118.10091 1589.6091 743 4292924896
119.22569 1589.6091 743 4292925409
120.35046 1589.6091 743 4293188838
121.47523 1589.6091 743 4293056997
122.8 1589.7358 744 4293254633
15.194495 1591.4789 767 4285813791
16.363302 1591.4789 767 4285879582
17.504587 1591.3541 766 4285813789
18.67156 1591.3541 766 4286010398
19.807339 1591.2294 765 4286010398
20.840366 1590.7302 761 4285681699
21.963303 1590.6055 760 4285681699
23.082569 1590.4807 759 4285615390
24.198166 1590.356 758 4284826131
25.229359 1589.9817 755 4284826129
26.291742 1589.7321 753 4285286680
27.434862 1589.7321 753 4284893982
28.53211 1589.6073 752 4284367637
29.673395 1589.6073 752 4284761869
30.765137 1589.4825 751 4285419798
31.904587 1589.4825 751 4285942795
32.990826 1589.3578 750 4286205966
34.073395 1589.233 749 4285942795
35.038532 1588.8588 746 4285942795
36.28624 1589.1083 748 4285485330
37.177982 1588.6091 744 4285616659
38.304588 1588.6091 744 4285813007
39.431194 1588.6091 744 4285878800
40.491745 1588.4844 743 4286271510
41.616512 1588.4844 743 4286600474
42.741283 1588.4844 743 4286600222
43.866055 1588.4844 743 4286468893
44.917431 1588.3596 742 4286010398
46.040367 1588.3596 742 4286010398
47.163303 1588.3596 742 4286010650
48.28624 1588.3596 742 4286076443
49.409176 1588.3596 742 4285945377
50.532108 1588.3596 742 4286142500
51.655045 1588.3596 742 4286209078
52.691742 1588.2349 741 4285616941
53.812843 1588.2349 741 4285878802
54.933945 1588.2349 741 4286536733
56.055046 1588.2349 741 4286733605
57.082569 1588.1101 740 4287128363
58.201836 1588.1101 740 4287654726
59.321102 1588.1101 740 4287654726
60.539448 1588.2349 741 4287655504
61.660549 1588.2349 741 4288116055
62.781651 1588.2349 741 4287854428
63.902752 1588.2349 741 4289302130
65.130272 1588.3596 742 4290487713
66.253212 1588.3596 742 4294964979
67.376144 1588.3596 742 4294967295
68.499084 1588.3596 742 4294967295
69.735779 1588.4844 743 4294967295
70.86055 1588.4844 743 4294966527
72.102753 1588.6091 744 4294967295
73.348625 1588.7339 745 4294967039
74.477066 1588.7339 745 4294966271
75.728439 1588.8588 746 4294306290
77.482567 1589.4825 751 4291676632
78.748627 1589.6073 752 4287926431
79.761467 1589.4825 751 4284110183
81.161469 1589.7321 753 4283320667
82.436699 1589.8569 754 4284497175
83.715599 1589.9817 755 4284760347
84.862389 1589.9817 755 4284956672
86.834862 1590.7302 761 4285746438
108.74679 1588.2349 741 4293713896
109.68807 1588.1101 740 4293386464
110.80734 1588.1101 740 4293255135
112.11009 1588.2349 741 4293319652
113.23119 1588.2349 741 4293385701
114.35229 1588.2349 741 4293187039
115.66238 1588.3596 742 4293187039
116.78532 1588.3596 742 4293383902
118.10091 1588.4844 743 4293383902
119.22569 1588.4844 743 4292858841
120.54679 1588.6091 744 4293187806
121.67339 1588.6091 744 4293057251
123 1588.7339 745 4293123044
16.38899 1590.433 768 4286010650
18.700918 1590.3101 767 4285813800
19.869724 1590.3101 767 4285682471
21.038532 1590.3101 767 4285747994
21.963303 1589.4496 760 4285682201
23.119267 1589.4496 760 4285746962
24.236698 1589.3267 759 4284233984
25.310091 1589.0807 757 4284760335
26.46055 1589.0807 757 4286141988
27.478899 1588.7119 754 4284828692
28.577982 1588.589 753 4283118080
29.673395 1588.4661 752 4284104983
30.765137 1588.3431 751 4285157671
31.955963 1588.4661 752 4285353992
33.044037 1588.3431 751 4285353992
34.183487 1588.3431 751 4285615633
35.209175 1588.0973 749 4285549840
36.28624 1587.9744 748 4285418781
37.299084 1587.7284 746 4285418781
38.429359 1587.7284 746 4285550338
39.495415 1587.6055 745 4286010889
40.557796 1587.4825 744 4286206487
41.684402 1587.4825 744 4286206487
42.811008 1587.4825 744 4286337055
43.937614 1587.4825 744 4286337055
45.06422 1587.4825 744 4286074147
46.190826 1587.4825 744 4285547802
47.317432 1587.4825 744 4285286680
48.365139 1587.3596 743 4286207782
49.48991 1587.3596 743 4286208031
50.614677 1587.3596 743 4286208031
51.739449 1587.3596 743 4286208545
52.777981 1587.2367 742 4285879836
53.900917 1587.2367 742 4286140942
55.023853 1587.2367 742 4286798871
56.14679 1587.2367 742 4286733605
57.176147 1587.1138 741 4286931241
58.392662 1587.2367 742 4287458107
59.515594 1587.2367 742 4287523901
60.638531 1587.2367 742 4287588942
61.761467 1587.2367 742 4288115542
62.884403 1587.2367 742 4287789407
64.007339 1587.2367 742 4289500025
65.130272 1587.2367 742 4290750379
66.361465 1587.3596 743 4294966270
67.486237 1587.3596 743 4294967295
68.611008 1587.3596 743 4294967038
69.849541 1587.4825 744 4294965499
70.976151 1587.4825 744 4294964985
72.220184 1587.6055 745 4294965240
73.467888 1587.7284 746 4294899190
74.84037 1587.9744 748 4294898422
76.097244 1588.0973 749 4294766836
77.607338 1588.4661 752 4293976566
78.622017 1588.3431 751 4293318892
79.889908 1588.4661 752 4290753742
81.29174 1588.7119 754 4285687682
82.436699 1588.7119 754 4284369952
83.98349 1589.0807 757 4282725127
84.862389 1588.8348 755 4284169734
86.009171 1588.8348 755 4285090836
108.56881 1586.9908 740 4293451746
109.86789 1587.1138 741 4293386212
110.80734 1586.9908 740 4293254883
112.11009 1587.1138 741 4293123042
113.23119 1587.1138 741 4293123042
114.53945 1587.2367 742 4293253860
115.66238 1587.2367 742 4293253860
116.97615 1587.3596 743 4293253597
118.29358 1587.4825 744 4293187804
119.42018 1587.4825 744 4292727768
120.54679 1587.4825 744 4293188319
121.87156 1587.6055 745 4293057251
123 1587.6055 745 4292991202
18.78899 1589.5046 770 4285813800
19.900917 1589.2623 768 4285813800
21.038532 1589.1412 767 4285813789
22.137615 1588.899 765 4285813789
23.192661 1588.5358 762 4285746983
24.275229 1588.2936 760 4284694038
25.431192 1588.2936 760 4284956945
26.587156 1588.2936 760 4285417496
27.61101 1587.9303 757 4284435729
28.807339 1588.0514 758 4283383041
29.768806 1587.567 754 4283777034
30.86422 1587.4459 753 4284632342
31.955963 1587.3247 752 4284829192
33.097248 1587.3247 752 4284894985
34.183487 1587.2036 751 4285156877
35.266056 1587.0825 750 4285156877
36.344955 1586.9614 749 4285222179
37.299084 1586.5981 746 4285354021
38.429359 1586.5981 746 4285746962
39.495415 1586.4771 745 4285944342
40.623852 1586.4771 745 4285812772
41.752293 1586.4771 745 4286010150
42.950459 1586.5981 746 4286206248
44.009174 1586.4771 745 4286206248
45.137615 1586.4771 745 4286271260
46.266056 1586.4771 745 4285810709
47.394497 1586.4771 745 4285284352
48.522934 1586.4771 745 4286600209
49.570641 1586.356 744 4286338084
50.697247 1586.356 744 4286535463
51.739449 1586.2349 743 4286469414
52.86422 1586.2349 743 4286338084
53.988991 1586.2349 743 4286600472
55.113762 1586.2349 743 4286863901
56.14679 1586.1138 742 4286733355
57.269726 1586.1138 742 4287457335
58.392662 1586.1138 742 4287196739
59.515594 1586.1138 742 4287064896
60.638531 1586.1138 742 4287523149
61.862385 1586.2349 743 4288247128
62.987156 1586.2349 743 4288182367
64.111923 1586.2349 743 4289827191
65.236694 1586.2349 743 4291079082
66.469727 1586.356 744 4294966266
67.706421 1586.4771 745 4294967295
68.722939 1586.356 744 4294966270
69.963303 1586.4771 745 4294767350
71.207336 1586.5981 746 4294833399
72.572479 1586.8403 748 4294964729
73.825691 1586.9614 749 4294964215
75.082565 1587.0825 750 4294306801
76.343117 1587.2036 751 4294306801
77.732109 1587.4459 753 4294306290
78.748627 1587.3247 752 4294240240
80.27523 1587.6881 755 4293516013
81.42202 1587.6881 755 4290029240
82.56881 1587.6881 755 4285359743
84.117432 1588.0514 758 4283451746
85.269722 1588.0514 758 4283644682
109.86789 1585.9927 741 4293056736
110.98899 1585.9927 741 4293385701
112.29358 1586.1138 742 4293386212
113.41651 1586.1138 742 4293386212
114.53945 1586.1138 742 4293452005
115.85138 1586.2349 743 4293386212
116.97615 1586.2349 743 4292991456
118.29358 1586.356 744 4292925663
119.42018 1586.356 744 4292662491
120.74312 1586.4771 745 4292925663
121.87156 1586.4771 745 4292728546
123.2 1586.5981 746 4292596959
124.33028 1586.5981 746 4292728798
21.005505 1587.8533 766 4285747996
22.137615 1587.7339 765 4285747996
23.192661 1587.3761 762 4285746731
24.313761 1587.2568 761 4284627993
25.431192 1587.1376 760 4285216539
26.587156 1587.1376 760 4286006055
27.699083 1587.0183 759 4285221899
28.85321 1587.0183 759 4285221899
29.959633 1586.899 758 4284828692
30.913761 1586.422 754 4284762643
32.007339 1586.3027 753 4285223176
33.150459 1586.3027 753 4285420298
34.238533 1586.1835 752 4285419281
35.322937 1586.0642 751 4285485330
36.403671 1585.9449 750 4285746983
37.480736 1585.8257 749 4285746983
38.554127 1585.7064 748 4286138656
39.688072 1585.7064 748 4286138656
40.689907 1585.4679 746 4286007852
41.820183 1585.4679 746 4286205231
42.950459 1585.4679 746 4286205998
44.080734 1585.4679 746 4286205998
45.21101 1585.4679 746 4286270758
46.341286 1585.4679 746 4286007586
47.471561 1585.4679 746 4285220133
48.601833 1585.4679 746 4286075441
49.651375 1585.3486 745 4286600995
50.779816 1585.3486 745 4286666788
51.823853 1585.2294 744 4286666538
52.950459 1585.2294 744 4286534696
53.988991 1585.1101 743 4286469406
55.113762 1585.1101 743 4286798115
56.238533 1585.1101 743 4286864942
57.363304 1585.1101 743 4287852093
58.488075 1585.1101 743 4287524423
59.612843 1585.1101 743 4287392837
60.737614 1585.1101 743 4287261780
61.862385 1585.1101 743 4288314468
62.987156 1585.1101 743 4288381026
64.111923 1585.1101 743 4290552195
65.343117 1585.2294 744 4291277745
66.686241 1585.4679 746 4294966008
67.816513 1585.4679 746 4294967039
68.946793 1585.4679 746 4294767867
70.304588 1585.7064 748 4294438387
71.43853 1585.7064 748 4294306801
72.689911 1585.8257 749 4294701810
73.944954 1585.9449 750 4294569968
75.203667 1586.0642 751 4294241005
76.588989 1586.3027 753 4294241005
77.85688 1586.422 754 4294241259
79.001831 1586.422 754 4294569968
80.27523 1586.5413 755 4294240754
81.42202 1586.5413 755 4293714409
82.56881 1586.5413 755 4291147996
83.715599 1586.5413 755 4286213778
110.04771 1584.9908 742 4293187813
111.17064 1584.9908 742 4293319656
112.29358 1584.9908 742 4293254881
113.41651 1584.9908 742 4293254881
114.72661 1585.1101 743 4293386210
115.85138 1585.1101 743 4293452259
117.16697 1585.2294 744 4293056738
118.29358 1585.2294 744 4293056738
119.42018 1585.2294 744 4292924896
120.74312 1585.3486 745 4292990689
121.87156 1585.3486 745 4292793828
123.2 1585.4679 746 4292728035
124.33028 1585.4679 746 4292794080
125.86789 1585.7064 748 4292794080
24.352293 1586.2166 762 4284694038
25.47156 1586.0991 761 4285741066
26.587156 1585.9817 760 4286399253
27.699083 1585.8643 759 4286138656
28.85321 1585.8643 759 4286138656
30.007339 1585.8643 759 4285483289
30.963303 1585.3945 755 4285417496
32.058716 1585.2771 754 4285682201
33.203671 1585.2771 754 4285616407
34.293579 1585.1597 753 4285747994
35.379818 1585.0422 752 4285616407
36.462387 1584.9248 751 4286139169
37.601833 1584.9248 751 4286204963
38.616512 1584.6899 749 4286334752
39.752293 1584.6899 749 4286334752
40.888073 1584.6899 749 4286072861
41.955963 1584.5725 748 4286336290
43.089909 1584.5725 748 4286666034
44.223854 1584.5725 748 4286534448
45.3578 1584.5725 748 4286139942
46.491745 1584.5725 748 4285745184
47.625687 1584.5725 748 4285286161
48.601833 1584.3376 746 4286009885
49.732109 1584.3376 746 4286731298
50.862385 1584.3376 746 4287060006
51.992661 1584.3376 746 4286928420
53.036697 1584.2202 745 4286665504
54.165138 1584.2202 745 4286534164
55.203671 1584.1028 744 4286928922
56.330276 1584.1028 744 4286733353
57.456882 1584.1028 744 4287654455
58.583485 1584.1028 744 4287655241
59.710091 1584.1028 744 4287655241
60.836697 1584.1028 744 4287656788
62.06422 1584.2202 745 4288183132
63.192661 1584.2202 745 4288840812
64.321098 1584.2202 745 4290946188
65.768806 1584.5725 748 4292198079
67.011009 1584.6899 749 4294964212
68.14679 1584.6899 749 4294965757
69.28257 1584.6899 749 4294701556
70.532112 1584.8074 750 4294307053
71.669724 1584.8074 750 4294307053
72.924774 1584.9248 751 4294635761
74.183487 1585.0422 752 4294307053
75.566971 1585.2771 754 4294043113
76.834862 1585.3945 755 4294306285
78.231194 1585.6294 757 4294306799
79.128441 1585.3945 755 4294241005
80.532112 1585.6294 757 4294437617
81.682571 1585.6294 757 4294437617
82.833031 1585.6294 757 4293583091
85.456879 1586.9211 768 4290425028
86.627525 1586.9211 768 4284967536
87.798164 1586.9211 768 4282664781
111.17064 1583.8679 742 4293385188
112.29358 1583.8679 742 4293123554
113.60184 1583.9854 743 4292860638
114.72661 1583.9854 743 4292990941
115.85138 1583.9854 743 4293188319
117.16697 1584.1028 744 4293055966
118.29358 1584.1028 744 4293121759
119.42018 1584.1028 744 4293055712
120.74312 1584.2202 745 4293121761
121.87156 1584.2202 745 4292924644
123.2 1584.3376 746 4292924644
124.33028 1584.3376 746 4293055712
125.46055 1584.3376 746 4293187554
24.429358 1585.2881 764 4285549347
25.511927 1585.0569 762 4285613314
26.629358 1584.9413 761 4284823808
27.74312 1584.8257 760 4285479447
28.899082 1584.8257 760 4286071328
30.007339 1584.7101 759 4285678868
31.062386 1584.4789 757 4285876504
32.110092 1584.2477 755 4285155604
33.256882 1584.2477 755 4285024275
34.348625 1584.1321 754 4285155332
35.436699 1584.0165 753 4285352454
36.521099 1583.9009 752 4285679641
37.662384 1583.9009 752 4285745434
38.741283 1583.7853 751 4285942558
39.816513 1583.6697 750 4286468902
40.954128 1583.6697 750 4286073897
42.023853 1583.5541 749 4286008103
43.159634 1583.5541 749 4286206248
44.295414 1583.5541 749 4286206248
45.3578 1583.4385 748 4286140444
46.566971 1583.5541 749 4286074395
47.625687 1583.4385 748 4286008855
48.759632 1583.4385 748 4286140442
49.893578 1583.4385 748 4286600222
51.027523 1583.4385 748 4286797602
51.992661 1583.2073 746 4286797343
53.122936 1583.2073 746 4286665500
54.165138 1583.0918 745 4286403098
55.293579 1583.0918 745 4286797856
56.330276 1582.9762 744 4286930987
57.456882 1582.9762 744 4287457587
