# .PCD v0.7 - Point Cloud Data file format
VERSION 0.7
FIELDS x y z rgb
SIZE 4 4 4 4
TYPE F F F U
COUNT 1 1 1 1
WIDTH 1373
HEIGHT 1
VIEWPOINT 0 0 0 1 0 0 0
POINTS 1373
DATA ascii
51.005505 1622.7192 808 4284503894
52.249542 1622.7192 808 4284503894
53.49358 1622.7192 808 4284503894
54.576145 1622.3927 806 4284503894
55.816513 1622.3927 806 4284503894
57.056881 1622.3927 806 4284503894
58.21101 1622.2294 805 4285030238
59.449543 1622.2294 805 4284833110
60.328442 1621.5762 801 4284109388
61.559631 1621.5762 801 4284961101
62.697247 1621.4128 800 4290027162
63.640366 1620.923 797 4290027703
64.86422 1620.923 797 4288514464
65.988991 1620.7596 796 4287857270
67.211006 1620.7596 796 4292265657
68.433029 1620.7596 796 4293518052
69.445869 1620.433 794 4294965498
70.451378 1620.1064 792 4294571254
71.666054 1620.1064 792 4294110703
72.770645 1619.9431 791 4294175983
73.759636 1619.6165 789 4294175983
77.449539 1610.4716 733 4293847787
78.555962 1610.4716 733 4293650152
79.794495 1610.6349 734 4293649641
81.170639 1610.9614 736 4293715434
82.689911 1611.4514 739 4293649638
83.807343 1611.4514 739 4293649638
11.155963 1610.1725 738 4284109136
12.231193 1609.8495 736 4283977549
13.299083 1609.5266 734 4284109136
14.359633 1609.2036 732 4284306514
15.438532 1609.0422 731 4284502097
16.541285 1609.0422 731 4284436304
19.46422 1619.0532 793 4284568142
20.711927 1619.2147 794 4284633935
21.99633 1619.5376 796 4284501845
23.218349 1619.5376 796 4284436052
24.477064 1619.6991 797 4284109136
25.73945 1619.8606 798 4284109136
27.086239 1620.345 801 4283782224
28.359632 1620.5065 802 4283650381
29.680735 1620.8293 804 4283912527
31.100918 1621.4752 808 4283912527
32.344955 1621.4752 808 4284436052
33.638531 1621.6367 809 4284567638
34.884403 1621.6367 809 4284436304
36.183487 1621.7982 810 4284502097
37.376148 1621.6367 809 4284175446
38.622017 1621.6367 809 4284109653
39.926605 1621.7982 810 4284109140
41.174313 1621.7982 810 4284109140
42.42202 1621.7982 810 4284304717
43.669724 1621.7982 810 4284436304
44.851376 1621.6367 809 4283977549
46.097248 1621.6367 809 4284043343
47.412846 1621.7982 810 4284044108
48.660549 1621.7982 810 4284109901
49.834862 1621.6367 809 4284372307
51.080734 1621.6367 809 4284438100
52.326607 1621.6367 809 4284372559
53.572475 1621.6367 809 4284504146
54.818348 1621.6367 809 4284373078
56.06422 1621.6367 809 4284373078
57.310093 1621.6367 809 4284438100
58.297249 1621.1523 806 4284569687
59.537613 1621.1523 806 4284372559
60.598164 1620.8293 804 4283977801
61.651375 1620.5065 802 4285225567
62.790825 1620.345 801 4290686643
63.735779 1619.8606 798 4291147455
64.86422 1619.6991 797 4287265412
66.088074 1619.6991 797 4287198300
67.211006 1619.5376 796 4293448634
68.433029 1619.5376 796 4293978090
69.445869 1619.2147 794 4294965499
70.5578 1619.0532 793 4294899190
71.666054 1618.8917 792 4294569968
72.770645 1618.7302 791 4294307312
73.98349 1618.7302 791 4294175983
77.321098 1609.2036 732 4293715947
78.555962 1609.3651 733 4293650154
80.322937 1610.1725 738 4293254629
81.572479 1610.334 739 4293517800
82.689911 1610.334 739 4293518052
83.944954 1610.4954 740 4293583845
11.155963 1609.0569 738 4283977297
12.231193 1608.7377 736 4283911504
13.299083 1608.4183 734 4283977549
14.359633 1608.0991 732 4284043343
15.438532 1607.9395 731 4283977801
16.513762 1607.7798 730 4283977801
17.614679 1607.7798 730 4284109388
18.715597 1607.7798 730 4284109388
22.128441 1618.9541 800 4284304465
23.39266 1619.1138 801 4284304465
24.623854 1619.1138 801 4283977297
25.816513 1618.9541 800 4283977297
27.086239 1619.1138 801 4283846481
28.444036 1619.5927 804 4283846481
29.768806 1619.9119 806 4283845963
31.14679 1620.3909 809 4283845963
32.392662 1620.3909 809 4284304717
33.688072 1620.5504 810 4284370511
34.93578 1620.5504 810 4284370511
36.183487 1620.5504 810 4284304717
37.431194 1620.5504 810 4283912275
38.678898 1620.5504 810 4283846481
39.926605 1620.5504 810 4284370259
41.295414 1620.8698 812 4284436052
42.546787 1620.8698 812 4284370259
43.798164 1620.8698 812 4284436052
44.917431 1620.5504 810 4284175185
46.165138 1620.5504 810 4284306514
47.552292 1620.8698 812 4284109901
48.660549 1620.5504 810 4284109901
49.908257 1620.5504 810 4284306514
51.155964 1620.5504 810 4284175185
52.403671 1620.5504 810 4284175181
53.572475 1620.3909 809 4284372559
54.818348 1620.3909 809 4284438352
56.06422 1620.3909 809 4284569939
57.310093 1620.3909 809 4284306510
58.555962 1620.3909 809 4283977801
59.71376 1620.2312 808 4284370511
60.777981 1619.9119 806 4286015336
62.018349 1619.9119 806 4288184217
62.884403 1619.2734 802 4291934419
63.926605 1618.9541 800 4290884256
64.961472 1618.6349 798 4285818195
66.088074 1618.4752 797 4286805113
67.211006 1618.3156 796 4293516256
68.433029 1618.3156 796 4293978603
69.655045 1618.3156 796 4294767863
70.5578 1617.8367 793 4294768117
71.666054 1617.677 792 4294965753
72.880737 1617.677 792 4294439154
74.095413 1617.677 792 4294504947
74.862389 1607.7798 730 4293846763
75.963303 1607.7798 730 4293583591
77.321098 1608.0991 732 4293715180
78.555962 1608.2587 733 4293649387
80.322937 1609.0569 738 4293583591
81.43853 1609.0569 738 4293583591
82.554131 1609.0569 738 4293518052
83.669724 1609.0569 738 4293518052
84.785324 1609.0569 738 4293583845
11.155963 1607.9413 738 4283715147
12.231193 1607.6257 736 4283780940
13.299083 1607.3101 734 4283977297
14.359633 1606.9945 732 4283911504
15.438532 1606.8367 731 4283715143
16.513762 1606.679 730 4283846985
17.614679 1606.679 730 4284043595
18.715597 1606.679 730 4284043595
22.128441 1617.7247 800 4283977549
23.357798 1617.7247 800 4283977549
24.587156 1617.7247 800 4283977297
25.816513 1617.7247 800 4283977297
27.126606 1618.0404 802 4283977300
28.612844 1618.9872 808 4283977300
29.900917 1619.1449 809 4283911756
31.192661 1619.3027 810 4283911756
32.440369 1619.3027 810 4283516747
33.787155 1619.6184 812 4283977297
35.038532 1619.6184 812 4283977549
36.289909 1619.6184 812 4283977549
37.541283 1619.6184 812 4283977297
38.79266 1619.6184 812 4283977297
40.044037 1619.6184 812 4284370511
41.355965 1619.7761 813 4284436304
42.609173 1619.7761 813 4284566607
43.862385 1619.7761 813 4284566607
45.115597 1619.7761 813 4284109136
46.368809 1619.7761 813 4284175185
47.552292 1619.6184 812 4284044108
48.803669 1619.6184 812 4284109901
50.055046 1619.6184 812 4284175185
51.306423 1619.6184 812 4284175185
52.403671 1619.3027 810 4284633687
53.651375 1619.3027 810 4284830810
54.899082 1619.3027 810 4284633683
56.14679 1619.3027 810 4284567890
57.394497 1619.3027 810 4283845963
58.6422 1619.3027 810 4283845963
59.889908 1619.3027 810 4283387729
61.047707 1619.1449 809 4287137930
62.201836 1618.9872 808 4289633201
63.07156 1618.356 804 4289698994
64.022018 1617.8826 801 4289040504
65.15596 1617.7247 800 4286408783
66.187157 1617.4092 798 4286347131
67.311928 1617.2513 797 4293189603
68.535782 1617.2513 797 4294044909
69.655045 1617.0936 796 4294637047
70.664223 1616.778 794 4294505199
71.774315 1616.6202 793 4294768115
72.990829 1616.6202 793 4294176498
74.207336 1616.6202 793 4294308084
72.539452 1606.5211 729 4293846761
73.761467 1606.679 730 4293715432
74.862389 1606.679 730 4293846763
75.963303 1606.679 730 4293715434
77.449539 1607.1523 733 4293517800
78.686241 1607.3101 734 4293649387
80.058716 1607.6257 736 4293649641
81.170639 1607.6257 736 4293452005
82.28257 1607.6257 736 4293452257
83.394493 1607.6257 736 4293452257
11.155963 1606.8257 738 4283977801
12.231193 1606.5138 736 4283845959
13.299083 1606.2018 734 4283845711
14.383486 1606.0459 733 4283911504
15.438532 1605.7339 731 4283845959
16.541285 1605.7339 731 4283977801
17.614679 1605.578 730 4284043595
18.715597 1605.578 730 4283977801
22.161469 1616.6514 801 4283977549
23.357798 1616.4954 800 4284043343
24.587156 1616.4954 800 4284043343
25.816513 1616.4954 800 4283977549
26.92477 1616.0275 797 4283977300
28.612844 1617.7432 808 4283911506
29.900917 1617.899 809 4283911756
31.192661 1618.0551 810 4283845963
32.440369 1618.0551 810 4283845713
33.787155 1618.3669 812 4284043093
35.038532 1618.3669 812 4283977549
36.289909 1618.3669 812 4283977549
37.541283 1618.3669 812 4283846481
38.79266 1618.3669 812 4283846481
40.102753 1618.5229 813 4284043343
41.416515 1618.679 814 4284043343
42.671558 1618.679 814 4284370511
43.926605 1618.679 814 4284370511
45.181652 1618.679 814 4284109136
46.436699 1618.679 814 4284109136
47.622017 1618.5229 813 4283977799
48.875229 1618.5229 813 4284109642
50.128441 1618.5229 813 4284109140
51.306423 1618.3669 812 4284043091
52.557796 1618.3669 812 4284371805
53.809174 1618.3669 812 4285029736
55.060551 1618.3669 812 4284765268
56.311928 1618.3669 812 4284304717
57.394497 1618.0551 810 4283648335
58.814678 1618.3669 812 4284569437
59.889908 1618.0551 810 4286672250
61.047707 1617.899 809 4291343553
62.293579 1617.899 809 4290817198
63.258717 1617.4312 806 4286737775
64.308258 1617.1193 804 4286211138
65.350456 1616.8074 802 4287000911
66.484406 1616.6514 801 4287004293
67.614677 1616.4954 800 4293254629
68.535782 1616.0275 797 4294899701
69.655045 1615.8716 796 4294899701
70.877068 1615.8716 796 4294636786
71.882568 1615.5596 794 4294899701
73.321098 1615.8716 796 4294438900
74.543121 1615.8716 796 4294438900
71.440369 1605.422 729 4294504945
72.660553 1605.578 730 4293846761
73.761467 1605.578 730 4293715432
74.98716 1605.7339 731 4293715434
76.343117 1606.0459 733 4293846763
77.57798 1606.2018 734 4293978351
78.686241 1606.2018 734 4294175731
80.058716 1606.5138 736 4293912810
81.170639 1606.5138 736 4293386210
82.28257 1606.5138 736 4293255131
83.394493 1606.5138 736 4293649888
4.5577984 1607.7137 751 4284304713
5.6880732 1607.5596 750 4284304713
11.211009 1606.1725 741 4283977801
12.27156 1605.7101 738 4283845959
13.34312 1605.4019 736 4283845713
14.407339 1605.0936 734 4283714128
15.438532 1604.6312 731 4283648585
16.513762 1604.4771 730 4283845963
17.614679 1604.4771 730 4283911756
18.715597 1604.4771 730 4283911756
22.161469 1615.4202 801 4283977549
23.39266 1615.4202 801 4284043343
24.623854 1615.4202 801 4283911504
25.816513 1615.2661 800 4283714382
27.126606 1615.5743 802 4283714382
25.278898 1604.323 729 4283714382
29.900917 1616.6532 809 4283714634
31.192661 1616.8074 810 4283582792
32.535778 1617.1156 812 4283845711
33.787155 1617.1156 812 4284109140
35.038532 1617.1156 812 4283911504
36.289909 1617.1156 812 4283911504
37.596329 1617.2698 813 4283911504
38.849541 1617.2698 813 4283845711
40.161469 1617.4238 814 4283977549
41.537613 1617.7321 816 4283977549
42.796329 1617.7321 816 4283977549
44.055046 1617.7321 816 4283911756
45.313763 1617.7321 816 4284043343
46.572475 1617.7321 816 4284109136
47.691742 1617.4238 814 4284109642
48.946789 1617.4238 814 4284109642
50.128441 1617.2698 813 4284043856
51.381653 1617.2698 813 4283846733
52.557796 1617.1156 812 4284043606
53.809174 1617.1156 812 4284240985
55.060551 1617.1156 812 4284372559
56.14679 1616.8074 810 4283714630
57.394497 1616.8074 810 4283188297
58.814678 1617.1156 812 4285425259
59.889908 1616.8074 810 4289167267
61.137615 1616.8074 810 4291601609
62.293579 1616.6532 809 4290422951
63.445873 1616.499 808 4285488220
64.499084 1616.1908 806 4284633124
65.544952 1615.8826 804 4287528016
66.484406 1615.4202 801 4287529606
67.715599 1615.4202 801 4293779941
68.946793 1615.4202 801 4294965498
62.124771 1603.5522 724 4294767863
63.321102 1603.7064 725 4294570222
70.223854 1604.1688 728 4293912297
71.440369 1604.323 729 4293714661
72.660553 1604.4771 730 4293517539
73.761467 1604.4771 730 4293846248
74.98716 1604.6312 731 4293715432
76.343117 1604.9395 733 4293912810
77.57798 1605.0936 734 4293847533
78.946793 1605.4019 736 4294110705
80.058716 1605.4019 736 4293847533
81.170639 1605.4019 736 4293386982
82.41835 1605.5559 737 4293321187
83.532112 1605.5559 737 4293518565
4.5504589 1606.422 750 4283845959
5.6880732 1606.422 750 4283912008
6.8146787 1606.2698 749 4283912008
7.9119267 1605.8129 746 4283845959
9.042202 1605.8129 746 4283584840
10.155963 1605.6605 745 4283650633
11.211009 1605.0514 741 4283912510
12.291743 1604.7468 739 4283912510
13.365138 1604.4421 737 4284108886
14.407339 1603.9854 734 4283845713
15.438532 1603.5284 731 4284041296
16.541285 1603.5284 731 4284041296
17.614679 1603.3761 730 4283648589
18.715597 1603.3761 730 4283648589
22.161469 1614.189 801 4283911756
23.39266 1614.189 801 4284043343
24.623854 1614.189 801 4284304717
25.73945 1613.7321 798 4284041546
24.179817 1603.2239 729 4284107339
25.278898 1603.2239 729 4284107339
26.377981 1603.2239 729 4283714882
31.284403 1615.8643 812 4283649089
32.535778 1615.8643 812 4283845963
33.836697 1616.0165 813 4284175185
35.089909 1616.0165 813 4284502349
36.396332 1616.1688 814 4284107591
37.761467 1616.4734 816 4283911756
39.020184 1616.4734 816 4283911756
40.337616 1616.6257 817 4284238668
41.598164 1616.6257 817 4284304717
42.858715 1616.6257 817 4284370511
44.119267 1616.6257 817 4284304717
45.379818 1616.6257 817 4283977297
46.640366 1616.6257 817 4284174933
47.831192 1616.4734 816 4284175181
48.946789 1616.1688 814 4284175181
50.201836 1616.1688 814 4284109649
51.456882 1616.1688 814 4283912527
52.634861 1616.0165 813 4283846484
53.809174 1615.8643 812 4283714641
55.060551 1615.8643 812 4284041796
56.311928 1615.8643 812 4285489242
57.394497 1615.5596 810 4287659379
58.814678 1615.8643 812 4291212202
59.889908 1615.5596 810 4290684856
61.137615 1615.5596 810 4287395206
62.293579 1615.4073 809 4285812574
63.539448 1615.4073 809 4285418072
64.499084 1614.9504 806 4285881422
65.642204 1614.7982 805 4288118383
66.880737 1614.7982 805 4288318858
68.119263 1614.7982 805 4294371814
61.034863 1602.4624 724 4294965496
62.124771 1602.4624 724 4294570738
63.321102 1602.6146 725 4294439152
64.412842 1602.6146 725 4294504945
65.504585 1602.6146 725 4294110191
66.70826 1602.767 726 4294175985
67.801834 1602.767 726 4293912556
69.011009 1602.9193 727 4293846763
70.341286 1603.2239 729 4293715432
71.559631 1603.3761 730 4293452259
72.660553 1603.3761 730 4293648616
73.761467 1603.3761 730 4293780203
75.111923 1603.6808 732 4293649636
76.469727 1603.9854 734 4294044394
77.57798 1603.9854 734 4293978603
78.946793 1604.2899 736 4294110189
80.190826 1604.4421 737 4294110189
81.43853 1604.5945 738 4293518052
82.554131 1604.5945 738 4293517800
83.669724 1604.5945 738 4293517800
4.5504589 1605.2844 750 4283714630
5.6880732 1605.2844 750 4283714630
6.8256879 1605.2844 750 4283583053
7.9376144 1604.9835 748 4283649102
9.042202 1604.6826 746 4283518795
10.139449 1604.3816 744 4283518795
11.266055 1604.3816 744 4283649350
12.291743 1603.6294 739 4283715143
13.387156 1603.4789 738 4283911506
14.455046 1603.178 736 4283714128
15.515596 1602.8771 734 4283975501
16.596331 1602.7266 733 4284041294
17.644037 1602.4257 731 4283648589
18.715597 1602.2753 730 4283385160
19.816513 1602.2753 730 4284041546
20.917431 1602.2753 730 4284370511
22.018349 1602.2753 730 4284434507
23.080734 1602.1248 729 4284434507
26.722937 1611.6036 792 4284436304
25.236698 1601.9744 728 4284304717
26.289907 1601.8239 727 4283845959
27.385321 1601.8239 727 4283714630
32.583485 1614.7633 813 4283845711
33.886238 1614.9138 814 4283977297
35.141285 1614.9138 814 4284043093
36.396332 1614.9138 814 4283911506
37.761467 1615.2147 816 4284107339
39.077065 1615.3651 817 4284107339
40.337616 1615.3651 817 4284435270
41.598164 1615.3651 817 4284632650
42.858715 1615.3651 817 4284436052
44.183487 1615.5156 818 4284370259
45.445873 1615.5156 818 4284370511
46.708256 1615.5156 818 4284502097
47.900917 1615.3651 817 4284175181
49.089909 1615.2147 816 4284109388
50.201836 1614.9138 814 4283781972
51.456882 1614.9138 814 4283321421
52.634861 1614.7633 813 4283189830
53.888073 1614.7633 813 4283453002
55.060551 1614.6128 812 4284435802
56.311928 1614.6128 812 4286409592
57.394497 1614.3119 810 4289233812
58.6422 1614.3119 810 4291141809
59.889908 1614.3119 810 4289832109
61.137615 1614.3119 810 4284897634
62.293579 1614.1615 809 4285090613
63.445873 1614.011 808 4285814080
64.689911 1614.011 808 4286538323
65.642204 1613.5596 805 4288512113
66.880737 1613.5596 805 4289173148
60.045872 1601.5229 725 4294831346
61.034863 1601.3724 724 4294966269
62.124771 1601.3724 724 4294505460
63.321102 1601.5229 725 4294439152
64.521103 1601.6733 726 4294373359
65.614677 1601.6733 726 4294044142
66.70826 1601.6733 726 4294044142
67.801834 1601.6733 726 4293846761
69.011009 1601.8239 727 4293846761
70.341286 1602.1248 729 4293715432
71.559631 1602.2753 730 4293583845
72.660553 1602.2753 730 4293714661
73.884407 1602.4257 731 4293648868
75.236694 1602.7266 733 4293451746
76.469727 1602.8771 734 4293780454
77.834862 1603.178 736 4293846763
79.207336 1603.4789 738 4293978349
80.322937 1603.4789 738 4294176244
81.572479 1603.6294 739 4293584107
82.689911 1603.6294 739 4293518052
4.5577984 1604.2954 751 4282663227
5.6972475 1604.2954 751 4283057985
6.8256879 1604.1467 750 4283582540
7.9504585 1603.9982 749 4283516747
9.0715599 1603.8495 748 4283583053
10.155963 1603.4037 745 4283649102
11.284404 1603.4037 745 4283582792
12.372478 1603.1064 743 4283648585
13.387156 1602.3633 738 4283714382
14.455046 1602.066 736 4283582540
15.515596 1601.7688 734 4283975501
16.596331 1601.6202 733 4284304465
17.673395 1601.4716 732 4283648585
18.74679 1601.323 731 4283516998
19.849541 1601.323 731 4284041294
20.917431 1601.1743 730 4284107087
22.018349 1601.1743 730 4284107087
23.080734 1601.0256 729 4284041294
24.179817 1601.0256 729 4283714634
25.236698 1600.8771 728 4283714634
26.289907 1600.7284 727 4283714634
27.385321 1600.7284 727 4283582792
28.576147 1601.0256 729 4283582540
29.526606 1600.5798 726 4283714382
30.620184 1600.5798 726 4283845461
31.713762 1600.5798 726 4283845461
37.761467 1613.9559 816 4284107339
39.077065 1614.1046 817 4284041546
40.396332 1614.2532 818 4284107321
41.598164 1614.1046 817 4284304956
42.921101 1614.2532 818 4284369748
44.183487 1614.2532 818 4284303698
45.445873 1614.2532 818 4284238672
46.708256 1614.2532 818 4284304465
47.900917 1614.1046 817 4283845959
49.089909 1613.9559 816 4283714630
50.348625 1613.9559 816 4283582540
51.607338 1613.9559 816 4283253831
52.711926 1613.6587 814 4284566607
53.888073 1613.5101 813 4288251014
55.060551 1613.3615 812 4289040028
56.14679 1613.0642 810 4290487474
57.394497 1613.0642 810 4288644257
58.6422 1613.0642 810 4286275453
59.889908 1613.0642 810 4285486664
61.137615 1613.0642 810 4284828733
62.293579 1612.9156 809 4285420089
63.539448 1612.9156 809 4285880640
64.689911 1612.767 808 4286340939
57.765137 1600.2826 724 4288709487
58.855045 1600.2826 724 4289830310
60.045872 1600.4312 725 4294963963
61.137615 1600.4312 725 4294966270
62.229359 1600.4312 725 4294899705
63.427525 1600.5798 726 4294439152
64.521103 1600.5798 726 4294373359
65.614677 1600.5798 726 4294044142
66.70826 1600.5798 726 4293978349
67.915596 1600.7284 727 4293978601
69.011009 1600.7284 727 4294044394
70.458717 1601.1743 730 4293583845
71.559631 1601.1743 730 4293518052
72.902756 1601.4716 732 4293648868
74.130272 1601.6202 733 4293517539
75.236694 1601.6202 733 4293517539
76.722939 1602.066 736 4293714661
77.963303 1602.2147 737 4293846765
79.207336 1602.3633 738 4293846765
80.455048 1602.512 739 4294044146
81.572479 1602.512 739 4293978353
82.689911 1602.512 739 4293583843
5.6972475 1603.156 751 4283189594
6.8256879 1603.0092 750 4283974990
7.9504585 1602.8624 749 4283843147
9.042202 1602.422 746 4283582540
10.155963 1602.2753 745 4283648589
11.266055 1602.1284 744 4283648585
12.372478 1601.9817 743 4283648585
13.431192 1601.5413 740 4283648585
14.502752 1601.2477 738 4283648585
15.592661 1601.101 737 4283648589
16.623854 1600.6605 734 4283648589
17.702753 1600.5138 733 4283648589
18.74679 1600.2202 731 4283582540
19.849541 1600.2202 731 4283714382
20.917431 1600.0734 730 4283845711
22.018349 1600.0734 730 4283845711
23.119267 1600.0734 730 4283845711
24.179817 1599.9266 729 4283649102
25.278898 1599.9266 729 4283649102
26.289907 1599.6331 727 4283583055
27.431192 1599.7798 728 4283451726
28.52844 1599.7798 728 4283582540
29.576147 1599.6331 727 4283714382
30.620184 1599.4862 726 4283714128
31.713762 1599.4862 726 4283714128
32.807339 1599.4862 726 4284041546
33.900917 1599.4862 726 4284041546
34.994495 1599.4862 726 4284041798
36.027523 1599.3395 725 4284107591
37.119267 1599.3395 725 4283845711
44.376148 1613.4312 821 4283911504
45.57798 1613.2844 820 4284107087
46.844036 1613.2844 820 4283909708
47.970642 1612.9908 818 4283712815
49.233028 1612.9908 818 4283910450
43.449543 1598.899 722 4283844162
44.460552 1598.7523 721 4284502349
45.544952 1598.7523 721 4286406512
46.629356 1598.7523 721 4288972182
47.794495 1598.899 722 4289826969
48.880733 1598.899 722 4289695382
49.966972 1598.899 722 4287922567
51.053211 1598.899 722 4284632661
52.227524 1599.0459 723 4284894763
53.405506 1599.1926 724 4285421107
54.403671 1599.0459 723 4285814069
55.58532 1599.1926 724 4286143033
56.579815 1599.0459 723 4286340426
57.765137 1599.1926 724 4288972145
58.954128 1599.3395 725 4290420905
60.045872 1599.3395 725 4294964219
61.240368 1599.4862 726 4294965499
62.333946 1599.4862 726 4294569970
63.427525 1599.4862 726 4294307051
64.521103 1599.4862 726 4294241257
65.614677 1599.4862 726 4293978090
66.820183 1599.6331 727 4293978090
67.915596 1599.6331 727 4293912808
69.126602 1599.7798 728 4293847015
70.458717 1600.0734 730 4293386210
71.678902 1600.2202 731 4293518052
72.902756 1600.3669 732 4293648866
74.130272 1600.5138 733 4293648866
75.361465 1600.6605 734 4293648868
76.722939 1600.9541 736 4293780454
77.963303 1601.101 737 4293715434
79.207336 1601.2477 738 4293715434
80.851379 1601.8348 742 4293912558
81.84037 1601.6881 741 4293912558
82.961472 1601.6881 741 4293780454
5.6972475 1602.0165 751 4287132549
6.8366971 1602.0165 751 4285817705
7.9504585 1601.7266 749 4283514950
9.0715599 1601.5817 748 4282990402
10.155963 1601.1467 745 4283056196
11.266055 1601.0018 744 4282991173
12.39266 1601.0018 744 4283320137
13.453211 1600.567 741 4283451457
14.526606 1600.2771 739 4283583044
15.644036 1600.2771 739 4283582540
16.706423 1599.9872 737 4283516747
17.732111 1599.5522 734 4283582540
18.809174 1599.4073 733 4283648589
19.882568 1599.2623 732 4283714382
20.952293 1599.1174 731 4283714382
22.055046 1599.1174 731 4283714128
23.119267 1598.9725 730 4283714128
24.220184 1598.9725 730 4283714382
25.278898 1598.8275 729 4283714382
26.333944 1598.6826 728 4283582290
27.431192 1598.6826 728 4283516497
28.52844 1598.6826 728 4283582792
29.526606 1598.3927 726 4283845963
30.620184 1598.3927 726 4283582540
31.713762 1598.3927 726 4283582540
32.807339 1598.3927 726 4283714382
33.900917 1598.3927 726 4283714382
34.994495 1598.3927 726 4283648589
36.027523 1598.2477 725 4283516747
36.994495 1597.9578 723 4283385412
38.082569 1597.9578 723 4283254083
45.57798 1612.0183 820 4283711815
46.844036 1612.0183 820 4284106317
47.970642 1611.7284 818 4286012992
42.434864 1597.9578 723 4287526231
43.449543 1597.8129 722 4288908917
44.535778 1597.8129 722 4289830019
45.622017 1597.8129 722 4289172646
46.708256 1597.8129 722 4287790993
47.794495 1597.8129 722 4286339702
48.880733 1597.8129 722 4285747564
49.966972 1597.8129 722 4285223217
51.053211 1597.8129 722 4285091374
52.227524 1597.9578 723 4284962089
53.405506 1598.1028 724 4285488433
54.403671 1597.9578 723 4286078523
55.491745 1597.9578 723 4286604868
56.675228 1598.1028 724 4286342484
57.862385 1598.2477 725 4289171583
58.954128 1598.2477 725 4290553771
60.045872 1598.2477 725 4294964987
61.240368 1598.3927 726 4294965501
62.333946 1598.3927 726 4294569716
63.427525 1598.3927 726 4294307818
64.521103 1598.3927 726 4293847267
65.614677 1598.3927 726 4293583843
66.820183 1598.5376 727 4293649636
67.915596 1598.5376 727 4293847013
69.011009 1598.5376 727 4293847013
70.341286 1598.8275 729 4293386210
71.559631 1598.9725 730 4293452259
73.023849 1599.4073 733 4293517789
74.253212 1599.5522 734 4293517789
75.611008 1599.8422 736 4293648868
76.849541 1599.9872 737 4293714661
78.091743 1600.1321 738 4293714661
79.337616 1600.2771 739 4293451746
80.851379 1600.7119 742 4293649641
81.974312 1600.7119 742 4293649641
6.8366971 1600.8771 751 4287003010
7.9376144 1600.4478 748 4284503133
9.0862389 1600.5908 749 4283845461
10.172477 1600.1615 746 4283516497
11.284404 1600.0183 745 4283254094
12.39266 1599.8752 744 4282990923
13.475229 1599.589 742 4283187513
14.526606 1599.1597 739 4283385149
15.644036 1599.1597 739 4282991423
16.706423 1598.8734 737 4283188801
17.790825 1598.7302 736 4283648589
18.840366 1598.4441 734 4283714382
19.915596 1598.3009 733 4283451724
20.987156 1598.1578 732 4283385931
22.055046 1598.0146 731 4283648335
23.157799 1598.0146 731 4283714128
24.220184 1597.8716 730 4284041294
25.3211 1597.8716 730 4284041294
26.422018 1597.8716 730 4283648335
27.477064 1597.7284 729 4283582542
28.480734 1597.4421 727 4283714634
29.526606 1597.2991 726 4283714634
30.568808 1597.156 725 4283187012
31.660551 1597.156 725 4283582027
32.752293 1597.156 725 4283714634
33.844036 1597.156 725 4283516998
34.994495 1597.2991 726 4283189049
36.027523 1597.156 725 4283189049
37.056881 1597.0128 724 4283057742
38.21101 1597.156 725 4283057742
39.302753 1597.156 725 4283974738
46.844036 1610.7523 820 4284895840
48.110092 1610.7523 820 4287785083
42.50642 1597.0128 724 4288771978
43.522934 1596.8698 723 4289695378
44.535778 1596.7266 722 4289827221
45.622017 1596.7266 722 4288647317
46.708256 1596.7266 722 4286542198
47.794495 1596.7266 722 4284570443
48.880733 1596.7266 722 4283978049
49.966972 1596.7266 722 4284696869
51.053211 1596.7266 722 4285157420
52.315598 1597.0128 724 4284961835
53.405506 1597.0128 724 4285685814
54.495415 1597.0128 724 4285947969
55.58532 1597.0128 724 4286408520
56.675228 1597.0128 724 4286409303
57.862385 1597.156 725 4289238402
58.954128 1597.156 725 4290949044
60.14679 1597.2991 726 4294963958
61.240368 1597.2991 726 4294767090
62.438534 1597.4421 727 4294569455
63.533943 1597.4421 727 4294308588
64.629356 1597.4421 727 4293716195
65.72477 1597.4421 727 4293255135
66.932114 1597.5853 728 4293518050
68.029358 1597.5853 728 4293648868
69.242203 1597.7284 729 4293648868
70.576149 1598.0146 731 4293385697
71.798164 1598.1578 732 4293319904
73.023849 1598.3009 733 4293056216
74.253212 1598.4441 734 4293319644
75.611008 1598.7302 736 4293253597
76.976151 1599.0165 738 4293516769
78.605507 1599.589 742 4293846502
79.728439 1599.589 742 4293714659
80.98349 1599.7321 743 4293648866
81.974312 1599.589 742 4293714659
6.8366971 1599.7377 751 4287595399
7.9761467 1599.7377 751 4289042845
9.1009178 1599.5963 750 4288123542
10.222018 1599.4551 749 4287531405
11.302752 1599.0312 746 4287399803
12.412844 1598.8899 745 4285031255
13.497248 1598.6073 743 4284304465
14.574312 1598.3247 741 4284304465
15.644036 1598.0422 739 4283582792
16.733946 1597.9009 738 4283254083
17.820183 1597.7596 737 4283055944
18.902752 1597.6184 736 4283121993
19.948624 1597.3358 734 4283253061
21.022018 1597.1945 733 4283318854
22.091743 1597.0532 732 4283318854
23.196331 1597.0532 732 4283187012
24.26055 1596.9119 731 4283514437
25.3211 1596.7706 730 4283514437
26.422018 1596.7706 730 4283513414
27.477064 1596.6294 729 4283711050
28.52844 1596.488 728 4283253061
29.526606 1596.2056 726 4283318854
30.620184 1596.2056 726 4283253061
31.713762 1596.2056 726 4283450440
32.807339 1596.2056 726 4284040262
33.844036 1596.0642 725 4284566607
34.994495 1596.2056 726 4285619265
36.088074 1596.2056 726 4286869332
37.119267 1596.0642 725 4287461764
38.21101 1596.0642 725 4288382866
39.302753 1596.0642 725 4288578964
40.394497 1596.0642 725 4288710550
41.48624 1596.0642 725 4288710310
42.57798 1596.0642 725 4287855001
43.596329 1595.923 724 4286141818
44.611008 1595.7816 723 4285681267
45.699081 1595.7816 723 4285092156
46.787155 1595.7816 723 4284960570
47.875229 1595.7816 723 4285091378
48.963303 1595.7816 723 4285354294
50.051376 1595.7816 723 4285615922
51.13945 1595.7816 723 4285550129
52.315598 1595.923 724 4285486134
53.495415 1596.0642 725 4286209858
54.587154 1596.0642 725 4286144832
55.678898 1596.0642 725 4287131727
56.770641 1596.0642 725 4286606424
57.959633 1596.2056 726 4290422674
59.053211 1596.2056 726 4291277256
60.14679 1596.2056 726 4294963199
61.343121 1596.3468 727 4294438891
62.438534 1596.3468 727 4293978340
63.640366 1596.488 728 4294044646
64.737617 1596.488 728 4294044646
65.834862 1596.488 728 4293649636
67.044037 1596.6294 729 4293912808
68.256882 1596.7706 730 4293649638
69.357796 1596.7706 730 4293649638
70.693581 1597.0532 732 4293518052
71.917435 1597.1945 733 4293386210
73.387154 1597.6184 736 4293452259
74.499084 1597.6184 736 4293846761
75.735779 1597.7596 737 4293385699
77.482567 1598.4661 742 4293254112
78.733948 1598.6073 743 4293780706
79.858719 1598.6073 743 4293978342
81.115593 1598.7487 744 4293517789
82.242203 1598.7487 744 4293714911
6.8477063 1598.7377 752 4286279008
7.9889908 1598.7377 752 4288450176
9.1155968 1598.5981 751 4287797137
10.255046 1598.5981 751 4287073670
11.394495 1598.5981 751 4287662728
12.433027 1597.9009 746 4286610039
13.497248 1597.4825 743 4286869611
14.598166 1597.3431 742 4286606696
15.644036 1596.9248 739 4285883500
16.733946 1596.7853 738 4284764762
17.849541 1596.7853 738 4283846481
18.933945 1596.6459 737 4283583053
20.014679 1596.5065 736 4283645505
21.056881 1596.2275 734 4283579711
22.128441 1596.0881 733 4283579711
23.234863 1596.0881 733 4283513918
24.300917 1595.9486 732 4283448125
25.363302 1595.8092 731 4283316540
26.422018 1595.6697 730 4283315774
27.477064 1595.5303 729 4283381567
28.576147 1595.5303 729 4282924085
29.576147 1595.2513 727 4283581758
30.620184 1595.1119 726 4283583557
31.713762 1595.1119 726 4283780936
32.807339 1595.1119 726 4285486175
33.900917 1595.1119 726 4286209899
34.994495 1595.1119 726 4288050810
36.088074 1595.1119 726 4287985017
37.119267 1594.9725 725 4288577417
38.21101 1594.9725 725 4289037968
39.302753 1594.9725 725 4289036933
40.394497 1594.9725 725 4288971140
41.48624 1594.9725 725 4288053901
42.57798 1594.9725 725 4286211697
43.669724 1594.9725 725 4284895821
44.686237 1594.833 724 4284698699
45.776146 1594.833 724 4285615922
46.787155 1594.6936 723 4285813300
47.955963 1594.833 724 4286008101
49.045872 1594.833 724 4286337066
50.13578 1594.833 724 4286206237
51.225689 1594.833 724 4286206237
52.403671 1594.9725 725 4285420591
53.495415 1594.9725 725 4286078521
54.587154 1594.9725 725 4286079037
55.772476 1595.1119 726 4287000139
56.866055 1595.1119 726 4286999385
57.959633 1595.1119 726 4291341723
59.152294 1595.2513 727 4292660176
60.247707 1595.2513 727 4294765553
61.445873 1595.3909 728 4294241259
62.543118 1595.3909 728 4293780708
63.746788 1595.5303 729 4293780706
64.845871 1595.5303 729 4293714913
65.944954 1595.5303 729 4293648353
67.15596 1595.6697 730 4293780195
68.256882 1595.6697 730 4293452005
69.588989 1595.9486 732 4293583591
70.928444 1596.2275 734 4293715432
72.27523 1596.5065 736 4293715432
73.508255 1596.6459 737 4293387236
74.744957 1596.7853 738 4293518565
75.985321 1596.9248 739 4293189601
77.609177 1597.4825 743 4293255394
78.990829 1597.7615 745 4293451744
79.988991 1597.6221 744 4293714659
81.247704 1597.7615 745 4293189085
82.376144 1597.7615 745 4293452257
6.8587155 1597.7339 753 4284960808
8.0018349 1597.7339 753 4285355566
9.1302748 1597.5963 752 4285159752
10.27156 1597.5963 752 4285291081
11.394495 1597.4587 751 4285686118
12.493578 1597.1835 749 4287199358
13.519266 1596.4954 744 4287199095
14.622019 1596.3578 743 4288843919
15.644036 1595.8074 739 4288713614
16.733946 1595.6697 738 4288845200
17.849541 1595.6697 738 4288713864
18.933945 1595.5321 737 4288845450
20.047707 1595.5321 737 4288448646
21.126606 1595.3945 736 4287988095
22.165138 1595.1193 734 4288250753
23.273394 1595.1193 734 4288447876
24.341284 1594.9817 733 4288184956
25.405504 1594.844 732 4288119163
26.466055 1594.7064 731 4288119424
27.522936 1594.5688 730 4288185473
28.623854 1594.5688 730 4288252800
29.67523 1594.4312 729 4288779144
30.722937 1594.2936 728 4288450956
31.766972 1594.156 727 4288911507
32.807339 1594.0183 726 4288976537
33.900917 1594.0183 726 4289173915
34.994495 1594.0183 726 4287855766
36.088074 1594.0183 726 4287395215
37.119267 1593.8807 725 4286670200
38.21101 1593.8807 725 4286078063
39.302753 1593.8807 725 4285879623
40.394497 1593.8807 725 4285484865
41.48624 1593.8807 725 4285091888
42.57798 1593.8807 725 4284960558
43.669724 1593.8807 725 4285485353
44.761467 1593.8807 725 4285748525
45.85321 1593.8807 725 4286141496
46.866055 1593.7432 724 4285944373
48.036697 1593.8807 725 4286141998
49.045872 1593.7432 724 4286273840
50.220184 1593.8807 725 4286143001
51.311928 1593.8807 725 4286340637
52.491745 1594.0183 726 4285946935
53.58532 1594.0183 726 4285946935
54.678898 1594.0183 726 4286144832
55.866055 1594.156 727 4286999885
56.961468 1594.156 727 4287329381
58.056881 1594.156 727 4291540133
59.251377 1594.2936 728 4292988372
60.348625 1594.2936 728 4294699247
61.548622 1594.4312 729 4294174699
62.752293 1594.5688 730 4293977320
63.85321 1594.5688 730 4293583843
64.954132 1594.5688 730 4293518050
66.055046 1594.5688 730 4293648866
67.267891 1594.7064 731 4293714659
68.484406 1594.844 732 4293452007
69.70459 1594.9817 733 4293452007
71.1633 1595.3945 736 4293649638
72.394493 1595.5321 737 4293846761
73.629356 1595.6697 738 4293583845
74.867889 1595.8074 739 4293583845
75.985321 1595.8074 739 4293518052
77.735779 1596.4954 744 4293715432
79.119263 1596.7706 746 4293780708
80.119263 1596.6331 745 4293846502
81.379814 1596.7706 746 4293451746
5.7339449 1596.8624 755 4285880097
6.8697248 1596.7266 754 4285617191
8.014679 1596.7266 754 4285485349
9.1449537 1596.5908 753 4285025824
10.288074 1596.5908 753 4285222946
11.412844 1596.4551 752 4285816130
12.513762 1596.1835 750 4286276681
13.60734 1595.9119 748 4286211668
14.645871 1595.3688 744 4287198563
15.644036 1594.6899 739 4287068790
16.761467 1594.6899 739 4287529341
17.849541 1594.5541 738 4287725941
18.99633 1594.6899 739 4288647043
20.080734 1594.5541 738 4289041032
21.161469 1594.4183 737 4289041032
22.238533 1594.2826 736 4290159002
23.273394 1594.011 734 4289895574
24.341284 1593.8752 733 4289568147
25.447706 1593.8752 733 4289502353
26.510092 1593.7395 732 4289700246
27.614679 1593.7395 732 4289437073
28.67156 1593.6036 731 4289109905
29.724771 1593.4679 730 4288386183
30.774311 1593.3322 729 4288254337
31.873394 1593.3322 729 4288056702
32.862385 1593.0605 727 4286873725
33.957798 1593.0605 727 4286742139
35.053211 1593.0605 727 4286017646
36.148624 1593.0605 727 4285557095
37.181652 1592.9248 726 4284767315
38.27523 1592.9248 726 4284043593
39.368809 1592.9248 726 4284632874
40.462387 1592.9248 726 4284567081
41.555962 1592.9248 726 4284368923
42.57798 1592.7889 725 4285224232
43.669724 1592.7889 725 4285879343
44.761467 1592.7889 725 4286010930
45.85321 1592.7889 725 4286271791
46.944954 1592.7889 725 4286534707
48.036697 1592.7889 725 4286010932
49.128441 1592.7889 725 4286273847
50.220184 1592.7889 725 4285750561
51.398167 1592.9248 726 4285684767
52.491745 1592.9248 726 4285946935
53.58532 1592.9248 726 4286407486
54.770641 1593.0605 727 4286473281
55.866055 1593.0605 727 4287131212
57.056881 1593.1963 728 4287921520
58.154129 1593.1963 728 4292000686
59.35046 1593.3322 729 4293186521
60.449543 1593.3322 729 4294436844
61.651375 1593.4679 730 4293845734
62.752293 1593.4679 730 4293845734
63.959633 1593.6036 731 4293452259
65.062386 1593.6036 731 4293518052
66.27523 1593.7395 732 4293846502
67.379814 1593.7395 732 4293648866
68.598167 1593.8752 733 4293451746
69.820183 1594.011 734 4293517539
71.280731 1594.4183 737 4293517539
72.513763 1594.5541 738 4293648868
73.750458 1594.6899 739 4293517539
74.990829 1594.8257 740 4293648868
76.359634 1595.0973 742 4293254881
77.862389 1595.5046 745 4293518052
79.119263 1595.6404 746 4293648355
80.249542 1595.6404 746 4293714148
5.7339449 1595.7156 755 4286274855
6.880734 1595.7156 755 4285945377
8.014679 1595.5817 754 4285681949
9.1596327 1595.5817 754 4285420288
10.304587 1595.5817 754 4285420288
11.412844 1595.3137 752 4285223698
12.533945 1595.1798 751 4285223698
13.629357 1594.9119 749 4284894243
14.669724 1594.3761 745 4284499741
15.746789 1594.1083 743 4284960292
16.816513 1593.8403 741 4285354794
17.908257 1593.7064 740 4285223467
18.99633 1593.5725 739 4285420589
20.080734 1593.4385 738 4285682241
21.196331 1593.4385 738 4285748035
22.275229 1593.3046 737 4286075721
23.350458 1593.1707 736 4286141514
24.381651 1592.9027 734 4286011211
25.447706 1592.7688 733 4286208590
26.554129 1592.7688 733 4285880908
27.614679 1592.6349 732 4285749322
28.719267 1592.6349 732 4285224261
29.774311 1592.501 731 4284829504
30.825687 1592.3669 730 4284698415
31.926605 1592.3669 730 4284566829
32.972477 1592.233 729 4284369957
34.128441 1592.3669 730 4284369957
35.170643 1592.233 729 4284567331
36.148624 1591.9651 727 4284501538
37.244038 1591.9651 727 4284829220
38.339451 1591.9651 727 4284829220
39.434864 1591.9651 727 4284895267
40.462387 1591.8312 726 4285290025
41.625687 1591.9651 727 4285420839
42.64954 1591.8312 726 4285552681
43.743118 1591.8312 726 4285879343
44.836697 1591.8312 726 4285879343
45.930275 1591.8312 726 4285879343
47.023853 1591.8312 726 4285945136
48.117432 1591.8312 726 4286077479
49.21101 1591.8312 726 4286143272
50.304588 1591.8312 726 4286011695
51.484406 1591.9651 727 4286011695
52.579815 1591.9651 727 4286011965
53.675228 1591.9651 727 4286735432
54.770641 1591.9651 727 4286538823
55.959633 1592.0991 728 4287722840
57.056881 1592.0991 728 4287987829
58.251377 1592.233 729 4292395960
59.35046 1592.233 729 4293187289
60.550457 1592.3669 730 4294108391
61.651375 1592.3669 730 4293845734
62.85688 1592.501 731 4294174699
63.959633 1592.501 731 4293648868
65.170639 1592.6349 732 4293648868
66.385323 1592.7688 733 4293451746
67.491745 1592.7688 733 4293385697
68.711929 1592.9027 734 4293451996
70.051376 1593.1707 736 4293780704
71.398163 1593.4385 738 4293648868
72.633026 1593.5725 739 4293714661
73.871559 1593.7064 740 4293714661
75.113762 1593.8403 741 4293978090
76.484406 1594.1083 743 4293517539
77.988991 1594.5101 746 4293517539
79.119263 1594.5101 746 4293582562
5.7339449 1594.5688 755 4285945375
6.880734 1594.5688 755 4285945377
8.027523 1594.5688 755 4285879584
9.1743116 1594.5688 755 4285814039
10.304587 1594.4366 754 4285814039
11.431192 1594.3046 753 4285616407
12.554129 1594.1725 752 4285616407
13.651376 1593.9082 750 4285286943
14.693578 1593.3798 746 4285221150
15.772477 1593.1156 744 4285024798
16.844036 1592.8513 742 4285090847
17.937614 1592.7192 741 4285288228
19.027523 1592.5872 740 4285222179
20.113762 1592.4551 739 4284959786
21.196331 1592.323 738 4284499235
22.275229 1592.1908 737 4284694820
23.38899 1592.1908 737 4284760869
24.462385 1592.0587 736 4284565030
25.489908 1591.7944 734 4284630823
26.554129 1591.6624 733 4285091374
27.660551 1591.6624 733 4284762666
28.719267 1591.5303 732 4284762914
29.774311 1591.3982 731 4284894243
30.825687 1591.2661 730 4284894243
31.926605 1591.2661 730 4284960292
32.972477 1591.1339 729 4284829220
34.128441 1591.2661 730 4284829220
35.170643 1591.1339 729 4285092126
36.209175 1591.0018 728 4285158175
37.306423 1591.0018 728 4285354021
38.403671 1591.0018 728 4285485351
39.500916 1591.0018 728 4285551396
40.598164 1591.0018 728 4285748775
41.695412 1591.0018 728 4285748777
42.7211 1590.8698 727 4285748777
43.743118 1590.7377 726 4285486636
44.911926 1590.8698 727 4285354794
46.007339 1590.8698 727 4285748527
47.102753 1590.8698 727 4285814320
48.198166 1590.8698 727 4286142768
49.376148 1591.0018 728 4286142768
50.473396 1591.0018 728 4285945386
51.656879 1591.1339 729 4286143022
52.755962 1591.1339 729 4286142518
53.765137 1591.0018 728 4286932034
54.954128 1591.1339 729 4286735436
56.053211 1591.1339 729 4288051039
57.152294 1591.1339 729 4288119163
58.348625 1591.2661 730 4292461757
59.449543 1591.2661 730 4292990420
60.550457 1591.2661 730 4293977316
61.754128 1591.3982 731 4293780708
62.961468 1591.5303 732 4293780708
64.066055 1591.5303 732 4293385697
65.2789 1591.6624 733 4293385697
66.385323 1591.6624 733 4293253597
67.603668 1591.7944 734 4293582562
68.939453 1592.0587 736 4293518050
70.166969 1592.1908 737 4293649636
71.515594 1592.4551 739 4293518050
72.752296 1592.5872 740 4293518050
73.992661 1592.7192 741 4293648355
75.236694 1592.8513 742 4293845734
76.609177 1593.1156 744 4293516769
77.988991 1593.3798 746 4293582562
79.761467 1594.0404 751 4293385184
81.031189 1594.1725 752 4293582562
5.7522936 1593.6826 757 4286076193
6.880734 1593.422 755 4285747996
8.027523 1593.422 755 4285813789
9.1743116 1593.422 755 4285813548
10.304587 1593.2917 754 4285682219
11.449541 1593.2917 754 4285813276
12.554129 1593.0312 752 4285747483
13.673394 1592.9009 751 4285419044
14.741284 1592.5101 748 4285419044
15.823853 1592.2495 746 4285418531
16.899082 1591.989 744 4285418531
17.966972 1591.7284 742 4285288228
19.058716 1591.5981 741 4285288228
20.14679 1591.4679 740 4285091097
21.231194 1591.3376 739 4285091097
22.311926 1591.2073 738 4285025052
23.427523 1591.2073 738 4285025052
24.543119 1591.2073 738 4284893722
25.489908 1590.6863 734 4284827673
26.598166 1590.6863 734 4284828186
27.706423 1590.6863 734 4284960029
28.766972 1590.5559 733 4284894987
29.823853 1590.4257 732 4285026574
30.877064 1590.2954 731 4285091876
31.926605 1590.1652 730 4285091876
33.027523 1590.1652 730 4285091876
34.128441 1590.1652 730 4284960290
35.229359 1590.1652 730 4285156877
36.269726 1590.0349 729 4285420048
37.368809 1590.0349 729 4285354021
38.467892 1590.0349 729 4285354021
39.566971 1590.0349 729 4285288478
40.666054 1590.0349 729 4285683236
41.765137 1590.0349 729 4285682984
42.86422 1590.0349 729 4285748777
43.963303 1590.0349 729 4285879593
45.062386 1590.0349 729 4286011436
46.161469 1590.0349 729 4286141998
47.260551 1590.0349 729 4286207791
48.359634 1590.0349 729 4286142518
49.458717 1590.0349 729 4286076725
50.557796 1590.0349 729 4286207541
51.743118 1590.1652 730 4286405176
52.844036 1590.1652 730 4286142781
53.944954 1590.1652 730 4287195469
55.045872 1590.1652 730 4286999387
56.14679 1590.1652 730 4287788904
57.343121 1590.2954 731 4288249729
58.445873 1590.2954 731 4292921032
59.548622 1590.2954 731 4293911511
60.651375 1590.2954 731 4294109147
61.85688 1590.4257 732 4293846240
63.066055 1590.5559 733 4293977570
64.172478 1590.5559 733 4293648357
65.387154 1590.6863 734 4293648357
66.495415 1590.6863 734 4293319138
67.827522 1590.9468 736 4293713896
69.053207 1591.077 737 4293780454
70.28257 1591.2073 738 4293912297
71.515594 1591.3376 739 4293714913
72.871559 1591.5981 741 4293780706
74.113762 1591.7284 742 4293517537
75.359634 1591.8588 743 4293648866
77.482567 1592.9009 751 4293648355
78.622017 1592.9009 751 4293648355
79.761467 1592.9009 751 4293517537
81.031189 1593.0312 752 4293517537
6.880734 1592.2753 755 4285156104
8.0532112 1592.5321 757 4285748498
9.1743116 1592.2753 755 4285813800
10.321101 1592.2753 755 4285616678
11.449541 1592.1467 754 4285616655
12.594496 1592.1467 754 4285682704
13.695413 1591.8899 752 4285615390
14.765138 1591.5046 749 4285615390
15.823853 1591.1193 746 4285484574
16.926605 1590.9908 745 4285418781
17.966972 1590.6055 742 4285418531
19.058716 1590.4771 741 4285418531
20.179817 1590.4771 741 4285156636
21.266054 1590.3486 740 4285156636
22.385321 1590.3486 740 4285155354
23.466055 1590.2202 739 4285352734
24.543119 1590.0918 738 4285352988
25.616514 1589.9633 737 4285352988
26.598166 1589.578 734 4284960281
27.706423 1589.578 734 4285091867
28.814678 1589.578 734 4285223700
29.823853 1589.321 732 4285223700
30.877064 1589.1926 731 4285485603
31.979816 1589.1926 731 4285354273
33.082569 1589.1926 731 4285354273
34.185322 1589.1926 731 4285354273
35.229359 1589.0642 730 4285354021
36.330276 1589.0642 730 4285354021
37.431194 1589.0642 730 4285485353
38.532108 1589.0642 730 4285485353
39.633026 1589.0642 730 4285157921
40.733944 1589.0642 730 4285486886
41.834862 1589.0642 730 4285749281
42.93578 1589.0642 730 4285749281
44.036697 1589.0642 730 4286272043
45.137615 1589.0642 730 4286666545
46.238533 1589.0642 730 4286469938
47.339451 1589.0642 730 4286469938
48.440369 1589.0642 730 4286142518
49.541283 1589.0642 730 4286010932
50.6422 1589.0642 730 4286142768
51.829357 1589.1926 731 4286405939
52.93211 1589.1926 731 4286142518
54.034863 1589.1926 731 4287326791
55.137615 1589.1926 731 4287197531
56.240368 1589.1926 731 4287723876
57.343121 1589.1926 731 4288446079
58.543118 1589.321 732 4293512140
59.746788 1589.4496 733 4294108643
60.85321 1589.4496 733 4293977056
61.959633 1589.4496 733 4293779421
63.170643 1589.578 734 4293779421
64.491745 1589.8348 736 4293714148
65.603668 1589.8348 736 4293648355
66.825691 1589.9633 737 4293187804
67.939453 1589.9633 737 4293582562
69.166969 1590.0918 738 4293648355
70.398163 1590.2202 739 4293648355
71.633026 1590.3486 740 4293582560
72.990829 1590.6055 742 4293582560
74.234863 1590.7339 743 4293385697
75.482567 1590.8624 744 4293517539
77.482567 1591.7615 751 4293386210
78.495415 1591.6331 750 4293386210
79.889908 1591.8899 752 4293452259
81.161469 1592.0183 753 4293254881
8.0532112 1591.3816 757 4285616674
9.2036695 1591.3816 757 4285682201
10.354129 1591.3816 757 4285353236
11.46789 1591.1284 755 4285419520
12.594496 1591.0018 754 4285485312
13.717431 1590.8752 753 4285484574
14.788991 1590.4954 750 4285287195
15.875229 1590.2422 748 4285221899
16.926605 1589.8624 745 4285221899
17.99633 1589.6091 743 4285352988
19.089909 1589.4825 742 4285418781
20.212845 1589.4825 742 4285287693
21.300917 1589.356 741 4285287693
22.348623 1589.1028 739 4285220898
23.427523 1588.9762 738 4285352484
24.543119 1588.9762 738 4285419281
25.616514 1588.8495 737 4285353488
26.686239 1588.7229 736 4285222672
27.706423 1588.4697 734 4285354001
28.814678 1588.4697 734 4285420300
29.873394 1588.3431 733 4285486093
30.979816 1588.3431 733 4285616405
32.086239 1588.3431 733 4285485076
33.192661 1588.3431 733 4285354273
34.299084 1588.3431 733 4285682982
35.34679 1588.2166 732 4285485101
36.451378 1588.2166 732 4285353772
37.49358 1588.0898 731 4285550633
38.596329 1588.0898 731 4285616426
39.699081 1588.0898 731 4285485351
40.801834 1588.0898 731 4285682730
41.904587 1588.0898 731 4285748777
42.93578 1587.9633 730 4286209328
44.036697 1587.9633 730 4286075952
45.212845 1588.0898 731 4286075952
46.315598 1588.0898 731 4286468916
47.41835 1588.0898 731 4286732088
48.521099 1588.0898 731 4286273586
49.706421 1588.2166 732 4285944877
50.6422 1587.9633 730 4285945136
51.915596 1588.2166 732 4287260996
53.020184 1588.2166 732 4286670922
54.124771 1588.2166 732 4286934093
55.229359 1588.2166 732 4286869332
56.333946 1588.2166 732 4288316778
57.438534 1588.2166 732 4288907913
58.640366 1588.3431 733 4293513423
59.845871 1588.4697 734 4294239459
60.85321 1588.3431 733 4293910750
62.062386 1588.4697 734 4293648094
63.379818 1588.7229 736 4293582301
64.598167 1588.8495 737 4293582560
65.711929 1588.8495 737 4293582560
66.935783 1588.9762 738 4293516769
68.051376 1588.9762 738 4293516769
69.280731 1589.1028 739 4293451746
70.513763 1589.2294 740 4293319904
71.867889 1589.4825 742 4293319904
73.110092 1589.6091 743 4293451746
74.355965 1589.7358 744 4293451746
75.359634 1589.6091 743 4293714661
77.482567 1590.6221 751 4293254881
78.748627 1590.7487 752 4293123294
79.889908 1590.7487 752 4293319652
81.29174 1591.0018 754 4293253858
8.0660553 1590.356 758 4285682201
9.2036695 1590.2312 757 4285616407
10.354129 1590.2312 757 4285485078
11.46789 1589.9817 755 4285354001
12.614679 1589.9817 755 4285222672
13.717431 1589.7321 753 4285091613
14.812844 1589.4825 751 4285223198
15.900917 1589.233 749 4285222153
17.009174 1589.1083 748 4285287947
18.055046 1588.7339 745 4285615633
19.121101 1588.4844 743 4285615633
20.245872 1588.4844 743 4285352988
21.335779 1588.3596 742 4285155352
22.422018 1588.2349 741 4285091097
23.466055 1587.9854 739 4285288476
24.583487 1587.9854 739 4285353992
25.658716 1587.8606 738 4285419785
