# .PCD v0.7 - Point Cloud Data file format
VERSION 0.7
FIELDS x y z rgb
SIZE 4 4 4 4
TYPE F F F U
COUNT 1 1 1 1
WIDTH 1368
HEIGHT 1
VIEWPOINT 0 0 0 1 0 0 0
POINTS 1368
DATA ascii
89.100914 1597.7596 737 4294307316
-16.899082 1597.6221 744 4288969772
-15.772477 1597.6221 744 4289164076
-14.645871 1597.6221 744 4288177180
-13.519266 1597.6221 744 4288243503
-12.372478 1597.4825 743 4288177710
-11.266055 1597.6221 744 4288047657
-10.122936 1597.4825 743 4287060762
-8.9981651 1597.4825 743 4286469166
-7.8605504 1597.3431 742 4285679650
-6.7376146 1597.3431 742 4285352456
-5.6146789 1597.3431 742 4284957698
-4.4917431 1597.3431 742 4285283851
-3.3688073 1597.3431 742 4285480974
-2.2422018 1597.2036 741 4285877256
-1.1211009 1597.2036 741 4286732565
0 1597.0642 740 4286535965
1.1174312 1596.9248 739 4286733344
2.2348623 1596.9248 739 4286667560
3.3522935 1596.9248 739 4286470438
4.4770641 1597.0642 740 4286469666
5.6055045 1597.2036 741 4286272543
6.7266054 1597.2036 741 4285682219
7.8605504 1597.3431 742 4287063872
8.9834862 1597.3431 742 4289167740
10.106422 1597.3431 742 4289628291
11.229358 1597.3431 742 4289429642
12.372478 1597.4825 743 4289429642
13.497248 1597.4825 743 4287988110
14.645871 1597.6221 744 4285553513
15.772477 1597.6221 744 4283911254
16.871559 1597.4825 743 4283648083
17.99633 1597.4825 743 4283582292
19.089909 1597.3431 742 4283648085
20.179817 1597.2036 741 4283516747
21.231194 1596.9248 739 4283516747
22.348623 1596.9248 739 4283714641
23.427523 1596.7853 738 4283846484
24.502752 1596.6459 737 4283584338
25.574312 1596.5065 736 4283123787
26.554129 1596.0881 733 4283714128
27.568808 1595.8092 731 4284043093
28.623854 1595.6697 730 4284500813
29.67523 1595.5303 729 4284237642
30.722937 1595.3909 728 4283780688
31.766972 1595.2513 727 4283780688
32.862385 1595.2513 727 4284043856
33.957798 1595.2513 727 4283715147
35.053211 1595.2513 727 4283845711
36.088074 1595.1119 726 4283845711
37.181652 1595.1119 726 4283845711
38.21101 1594.9725 725 4283845711
39.302753 1594.9725 725 4283714382
40.394497 1594.9725 725 4283582540
41.48624 1594.9725 725 4283582792
42.50642 1594.833 724 4283516998
43.522934 1594.6936 723 4283385412
44.611008 1594.6936 723 4283451205
45.699081 1594.6936 723 4283385931
46.708256 1594.5541 722 4283385931
47.794495 1594.5541 722 4286734432
48.880733 1594.5541 722 4288642429
49.966972 1594.5541 722 4289893273
51.053211 1594.5541 722 4290288031
52.227524 1594.6936 723 4289175701
53.315598 1594.6936 723 4287267703
54.403671 1594.6936 723 4285556834
55.491745 1594.6936 723 4284833110
56.579815 1594.6936 723 4286142002
57.570641 1594.5541 722 4286405174
58.755962 1594.6936 723 4286798399
59.844036 1594.6936 723 4286929985
60.93211 1594.6936 723 4286801481
62.020184 1594.6936 723 4287064396
63.108257 1594.6936 723 4286738266
64.196327 1594.6936 723 4291343520
65.174309 1594.5541 722 4292398806
66.484406 1594.833 724 4294967295
67.57431 1594.833 724 4294967295
68.779816 1594.9725 725 4294967039
69.988991 1595.1119 726 4294966013
71.201836 1595.2513 727 4294966527
72.41835 1595.3909 728 4294966527
73.515594 1595.3909 728 4294966271
74.612846 1595.3909 728 4294966013
75.710091 1595.3909 728 4294966013
76.935783 1595.5303 729 4294899192
78.165138 1595.6697 730 4294965242
79.398163 1595.8092 731 4294833145
80.768806 1596.0881 733 4294898938
82.011009 1596.2275 734 4294965498
83.532112 1596.6459 737 4294833912
84.785324 1596.7853 738 4294176496
85.900917 1596.7853 738 4294242289
87.15963 1596.9248 739 4294373109
88.277061 1596.9248 739 4294504695
-18.025688 1596.4954 744 4288376607
-16.899082 1596.4954 744 4288310813
-15.772477 1596.4954 744 4287652129
-14.645871 1596.4954 744 4287455007
-13.497248 1596.3578 743 4287192850
-12.372478 1596.3578 743 4287389973
-11.266055 1596.4954 744 4286863908
-10.122936 1596.3578 743 4286403357
-8.9981651 1596.3578 743 4286075693
-7.8605504 1596.2202 742 4285286178
-6.7376146 1596.2202 742 4285417759
-5.6146789 1596.2202 742 4285286430
-4.4917431 1596.2202 742 4284958230
-3.3688073 1596.2202 742 4284760851
-2.2458715 1596.2202 742 4285220898
-1.1229358 1596.2202 742 4286339379
0 1595.9449 740 4286667553
1.1174312 1595.8074 739 4286733346
2.2385321 1595.9449 740 4286863912
3.3522935 1595.8074 739 4286534948
4.4844036 1596.0825 741 4286667047
5.6146789 1596.2202 742 4286667047
6.7376146 1596.2202 742 4286207545
7.8605504 1596.2202 742 4286141496
8.9834862 1596.2202 742 4286601256
10.122936 1596.3578 743 4287193393
11.247706 1596.3578 743 4287128936
12.372478 1596.3578 743 4289168775
13.497248 1596.3578 743 4288842400
14.645871 1596.4954 744 4288710814
15.772477 1596.4954 744 4288645020
16.871559 1596.3578 743 4288381849
17.99633 1596.3578 743 4288053901
19.089909 1596.2202 742 4286540662
20.179817 1596.0825 741 4285027939
21.266054 1595.9449 740 4284304216
22.348623 1595.8074 739 4283648848
23.427523 1595.6697 738 4283385933
24.543119 1595.6697 738 4283123787
25.616514 1595.5321 737 4282729030
26.598166 1595.1193 734 4283188045
27.614679 1594.844 732 4283122252
28.67156 1594.7064 731 4283712063
29.724771 1594.5688 730 4283777856
30.774311 1594.4312 729 4283254344
31.820183 1594.2936 728 4283385931
32.862385 1594.156 727 4283320385
34.014679 1594.2936 728 4283386434
35.053211 1594.156 727 4283516747
36.088074 1594.0183 726 4283516747
37.119267 1593.8807 725 4283384395
38.21101 1593.8807 725 4283187016
39.302753 1593.8807 725 4283711050
40.394497 1593.8807 725 4284500310
41.416515 1593.7432 724 4284634189
42.50642 1593.7432 724 4285752414
43.522934 1593.6055 723 4288055407
44.611008 1593.6055 723 4288910716
45.699081 1593.6055 723 4289041046
46.787155 1593.6055 723 4288975253
47.794495 1593.4679 722 4288909460
48.880733 1593.4679 722 4288909460
49.966972 1593.4679 722 4286934412
51.053211 1593.4679 722 4286145152
52.13945 1593.4679 722 4285422415
53.225689 1593.4679 722 4284698949
54.311928 1593.4679 722 4285552179
55.398167 1593.4679 722 4286012730
56.484406 1593.4679 722 4286405435
57.570641 1593.4679 722 4286471485
58.755962 1593.6055 723 4286733122
59.743118 1593.4679 722 4287193673
60.829357 1593.4679 722 4286669639
62.020184 1593.6055 723 4287262032
63.108257 1593.6055 723 4286936422
64.196327 1593.6055 723 4291805104
65.394493 1593.7432 724 4292792546
66.484406 1593.7432 724 4294966527
67.688072 1593.8807 725 4294967295
68.895416 1594.0183 726 4294967295
70.106422 1594.156 727 4294966270
71.321098 1594.2936 728 4294966527
72.539452 1594.4312 729 4294966783
73.638535 1594.4312 729 4294966527
74.737617 1594.4312 729 4294966269
75.8367 1594.4312 729 4294834682
77.064217 1594.5688 730 4294966269
78.42569 1594.844 732 4294966783
79.662384 1594.9817 733 4294965755
80.902756 1595.1193 734 4294965498
82.011009 1595.1193 734 4294834682
83.532112 1595.5321 737 4294768633
84.785324 1595.6697 738 4294438902
85.900917 1595.6697 738 4294373109
87.01651 1595.6697 738 4294438902
-18.055046 1595.5046 745 4288048441
-16.899082 1595.3688 744 4287719219
-15.798165 1595.5046 745 4286864934
-14.645871 1595.3688 744 4286667299
-13.497248 1595.233 743 4286666267
-12.372478 1595.233 743 4285745165
-11.247706 1595.233 743 4285875720
-10.122936 1595.233 743 4285941513
-8.9834862 1595.0973 742 4285352736
-7.8605504 1595.0973 742 4285418529
-6.7266054 1594.9614 741 4285483552
-5.6146789 1595.0973 742 4285483552
-4.4844036 1594.9614 741 4285090847
-3.3633027 1594.9614 741 4284432917
-2.2422018 1594.9614 741 4284563733
-1.1211009 1594.9614 741 4286471987
0 1594.8257 740 4286865194
1.119266 1594.8257 740 4286865194
2.2385321 1594.8257 740 4286864429
3.3577981 1594.8257 740 4286732842
4.4917431 1595.0973 742 4286799149
5.6055045 1594.9614 741 4286799149
6.7266054 1594.9614 741 4286405687
7.8605504 1595.0973 742 4286274101
8.9834862 1595.0973 742 4285879834
10.106422 1595.0973 742 4285945627
11.229358 1595.0973 742 4285749561
12.372478 1595.233 743 4287459922
13.497248 1595.233 743 4287987327
14.645871 1595.3688 744 4288711050
15.772477 1595.3688 744 4290419873
16.871559 1595.233 743 4289564564
18.025688 1595.3688 744 4288843152
19.121101 1595.233 743 4287856257
20.212845 1595.0973 742 4287725441
21.300917 1594.9614 741 4286869875
22.385321 1594.8257 740 4285358197
23.466055 1594.6899 739 4284305508
24.543119 1594.5541 738 4283255374
25.616514 1594.4183 737 4283123787
26.598166 1594.011 734 4283320139
27.660551 1593.8752 733 4283188297
28.766972 1593.8752 733 4283448125
29.774311 1593.6036 731 4283513918
30.825687 1593.4679 730 4282923833
31.873394 1593.3322 729 4283647555
32.917431 1593.1963 728 4283648585
34.07156 1593.3322 729 4283582792
35.111927 1593.1963 728 4283516747
36.148624 1593.0605 727 4283516747
37.119267 1592.7889 725 4283516747
38.21101 1592.7889 725 4283582540
39.302753 1592.7889 725 4284697691
40.394497 1592.7889 725 4285618793
41.416515 1592.6532 724 4287591806
42.50642 1592.6532 724 4287591806
43.522934 1592.5175 723 4288907925
44.611008 1592.5175 723 4289566111
45.699081 1592.5175 723 4290618529
46.787155 1592.5175 723 4289697427
47.875229 1592.5175 723 4288778896
48.880733 1592.3816 722 4287594365
49.966972 1592.3816 722 4284310864
51.053211 1592.3816 722 4283718727
52.227524 1592.5175 723 4284895015
53.315598 1592.5175 723 4285684531
54.311928 1592.3816 722 4286471481
55.491745 1592.5175 723 4286405687
56.579815 1592.5175 723 4286667062
57.667889 1592.5175 723 4286864442
58.755962 1592.5175 723 4286864451
59.844036 1592.5175 723 4287193673
60.93211 1592.5175 723 4286735170
62.020184 1592.5175 723 4287393100
63.21468 1592.6532 724 4287396460
64.304588 1592.6532 724 4292396727
65.504585 1592.7889 725 4293713896
66.596329 1592.7889 725 4294967295
67.801834 1592.9248 726 4294967295
68.895416 1592.9248 726 4294966013
70.106422 1593.0605 727 4294833399
71.321098 1593.1963 728 4294965757
72.539452 1593.3322 729 4294965501
73.761467 1593.4679 730 4294965501
74.737617 1593.3322 729 4294834428
75.963303 1593.4679 730 4294965757
77.192657 1593.6036 731 4294966271
78.686241 1594.011 734 4294966527
79.794495 1594.011 734 4294834428
81.170639 1594.2826 736 4294834428
82.41835 1594.4183 737 4294768635
83.669724 1594.5541 738 4294768635
84.924774 1594.6899 739 4294637049
87.15963 1594.6899 739 4294767867
-18.025688 1594.2422 744 4286402859
-16.899082 1594.2422 744 4285876515
-15.772477 1594.2422 744 4285547289
-14.645871 1594.2422 744 4285020945
-13.497248 1594.1083 743 4284953605
-12.372478 1594.1083 743 4284755970
-11.247706 1594.1083 743 4284755456
-10.106422 1593.9744 742 4285018626
-8.9834862 1593.9744 742 4284626435
-7.8477063 1593.8403 741 4285086986
-6.7266054 1593.8403 741 4285088533
-5.6055045 1593.8403 741 4285351704
-4.4844036 1593.8403 741 4285220898
-3.3633027 1593.8403 741 4285155104
-2.2422018 1593.8403 741 4285090345
-1.1211009 1593.8403 741 4286800964
0 1593.5725 739 4286538030
1.1174312 1593.5725 739 4286472237
2.2385321 1593.7064 740 4286864429
3.3633027 1593.8403 741 4286798635
4.4917431 1593.9744 742 4286733353
5.6146789 1593.9744 742 4286733353
6.7376146 1593.9744 742 4286733353
7.8733945 1594.1083 743 4286733353
8.9834862 1593.9744 742 4286405912
10.122936 1594.1083 743 4286208533
11.229358 1593.9744 742 4285420839
12.372478 1594.1083 743 4285157923
13.475229 1593.9744 742 4285551146
14.645871 1594.2422 744 4285748525
15.772477 1594.2422 744 4286472266
16.899082 1594.2422 744 4286932817
18.025688 1594.2422 744 4286934877
19.152294 1594.2422 744 4287921772
20.245872 1594.1083 743 4288185221
21.300917 1593.8403 741 4289369496
22.385321 1593.7064 740 4289303964
23.466055 1593.5725 739 4289764515
24.543119 1593.4385 738 4288515988
25.616514 1593.3046 737 4288055437
26.686239 1593.1707 736 4288382601
27.706423 1592.9027 734 4288382601
28.766972 1592.7688 733 4288250753
29.823853 1592.6349 732 4288184960
30.877064 1592.501 731 4288382084
31.926605 1592.3669 730 4288579464
32.972477 1592.233 729 4288513421
34.07156 1592.233 729 4288447628
35.170643 1592.233 729 4288316808
36.209175 1592.0991 728 4288382601
37.244038 1591.9651 727 4288516238
38.339451 1591.9651 727 4288976789
39.368809 1591.8312 726 4288844710
40.462387 1591.8312 726 4289765812
41.48624 1591.6973 725 4287923358
42.50642 1591.5634 724 4287660442
43.596329 1591.5634 724 4286868621
44.686237 1591.5634 724 4286539656
45.776146 1591.5634 724 4286470740
46.866055 1591.5634 724 4286010189
47.875229 1591.4293 723 4285420619
48.963303 1591.4293 723 4284894275
50.051376 1591.4293 723 4284633613
51.13945 1591.4293 723 4285423128
52.227524 1591.4293 723 4285552929
53.315598 1591.4293 723 4286145323
54.403671 1591.4293 723 4286602801
55.491745 1591.4293 723 4286800436
56.579815 1591.4293 723 4286930485
57.667889 1591.4293 723 4286996534
58.755962 1591.4293 723 4286799941
59.844036 1591.4293 723 4287260492
60.93211 1591.4293 723 4286867272
62.124771 1591.5634 724 4287327823
63.321102 1591.6973 725 4287593069
64.412842 1591.6973 725 4292922558
65.504585 1591.6973 725 4293845487
66.70826 1591.8312 726 4294967295
67.801834 1591.8312 726 4294967295
69.011009 1591.9651 727 4294966013
70.223854 1592.0991 728 4294967039
71.440369 1592.233 729 4294967295
72.660553 1592.3669 730 4294967039
73.761467 1592.3669 730 4294966527
74.862389 1592.3669 730 4294966271
76.089905 1592.501 731 4294966527
77.449539 1592.7688 733 4294966015
78.686241 1592.9027 734 4294965757
80.058716 1593.1707 736 4294965244
81.304588 1593.3046 737 4294899451
82.554131 1593.4385 738 4294833658
83.944954 1593.7064 740 4294833658
85.064217 1593.7064 740 4294767863
-18.055046 1593.2477 745 4285350144
-16.899082 1593.1156 744 4285021184
-15.772477 1593.1156 744 4283838208
-14.622019 1592.9835 743 4283969536
-13.497248 1592.9835 743 4284098816
-12.372478 1592.9835 743 4284033024
-11.229358 1592.8513 742 4284491264
-10.106422 1592.8513 742 4284688640
-8.9834862 1592.8513 742 4284427802
-7.8477063 1592.7192 741 4284559388
-6.7155962 1592.5872 740 4284495616
-5.6055045 1592.7192 741 4284956160
-4.4844036 1592.7192 741 4284825349
-3.3577981 1592.5872 740 4285285900
-2.2385321 1592.5872 740 4284958743
2.2422018 1592.7192 741 4286864942
3.3633027 1592.7192 741 4286536233
4.4990826 1592.9835 743 4286667047
5.6238532 1592.9835 743 4286798889
6.7486238 1592.9835 743 4286537257
7.8733945 1592.9835 743 4286340135
8.9834862 1592.8513 742 4286340385
10.106422 1592.8513 742 4286340385
11.229358 1592.8513 742 4285420839
12.352294 1592.8513 742 4285355046
13.475229 1592.8513 742 4285420843
14.622019 1592.9835 743 4285223465
15.772477 1593.1156 744 4285091876
16.899082 1593.1156 744 4285091876
18.055046 1593.2477 745 4285421621
19.183487 1593.2477 745 4286276929
20.278898 1593.1156 744 4287131488
21.335779 1592.8513 742 4287855212
22.422018 1592.7192 741 4287921280
23.504587 1592.5872 740 4289237396
24.583487 1592.4551 739 4289238414
25.658716 1592.323 738 4289304207
26.730276 1592.1908 737 4290421405
27.706423 1591.7944 734 4290092183
28.814678 1591.7944 734 4289961106
29.873394 1591.6624 733 4289763726
30.92844 1591.5303 732 4289632656
31.926605 1591.2661 730 4289106312
32.972477 1591.1339 729 4289695882
34.128441 1591.2661 730 4289827469
35.170643 1591.1339 729 4290092703
36.209175 1591.0018 728 4289698201
37.306423 1591.0018 728 4289109655
38.403671 1591.0018 728 4288385933
39.434864 1590.8698 727 4287859850
40.530273 1590.8698 727 4287596934
41.555962 1590.7377 726 4286741887
42.57798 1590.6055 725 4286413178
43.669724 1590.6055 725 4285491041
44.761467 1590.6055 725 4284372559
45.85321 1590.6055 725 4284301092
46.866055 1590.4734 724 4285287988
47.955963 1590.4734 724 4285748035
48.963303 1590.3413 723 4285813828
50.051376 1590.3413 723 4286142238
51.225689 1590.4734 724 4286273825
52.315598 1590.4734 724 4286274340
53.405506 1590.4734 724 4286405926
54.403671 1590.3413 723 4286537005
55.491745 1590.3413 723 4286734641
56.675228 1590.4734 724 4286800695
57.765137 1590.4734 724 4286800695
58.855045 1590.4734 724 4286472516
59.944954 1590.4734 724 4286867274
61.034863 1590.4734 724 4286867274
62.229359 1590.6055 725 4287656534
63.321102 1590.6055 725 4288183673
64.521103 1590.7377 726 4293447369
65.614677 1590.7377 726 4293845739
66.820183 1590.8698 727 4294967039
67.915596 1590.8698 727 4294966527
69.126602 1591.0018 728 4294966013
70.223854 1591.0018 728 4294967039
71.440369 1591.1339 729 4294967039
72.660553 1591.2661 730 4294967039
73.884407 1591.3982 731 4294966783
74.98716 1591.3982 731 4294965757
76.216515 1591.5303 732 4294965757
77.449539 1591.6624 733 4294767865
78.686241 1591.7944 734 4294965244
80.322937 1592.323 738 4294965244
81.572479 1592.4551 739 4294965244
82.689911 1592.4551 739 4294899451
84.082565 1592.7192 741 4294636536
86.324768 1592.7192 741 4294635763
-19.21468 1592.2495 746 4284229632
-18.084404 1592.2495 746 4284814592
-16.899082 1591.989 744 4288498982
-15.772477 1591.989 744 4288967503
-14.622019 1591.8588 743 4291336051
-13.497248 1591.8588 743 4291272598
-12.372478 1591.8588 743 4291470233
-11.229358 1591.7284 742 4291536540
-10.106422 1591.7284 742 4291733919
-8.9834862 1591.7284 742 4291275921
-7.8477063 1591.5981 741 4288446822
-6.7266054 1591.5981 741 4287854630
-5.6055045 1591.5981 741 4285354240
5.6330276 1591.989 744 4287325495
6.7596331 1591.989 744 4286733346
7.8733945 1591.8588 743 4286667553
8.9981651 1591.8588 743 4286667553
10.122936 1591.8588 743 4286799139
11.247706 1591.8588 743 4286011684
12.352294 1591.7284 742 4285880097
13.453211 1591.5981 741 4285879343
14.574312 1591.5981 741 4285813550
16.954128 1592.2495 746 4285024277
18.084404 1592.2495 746 4285090595
19.21468 1592.2495 746 4285814318
20.311926 1592.1193 745 4285616676
21.335779 1591.7284 742 4285550883
22.422018 1591.5981 741 4285616437
23.504587 1591.4679 740 4285813817
24.583487 1591.3376 739 4285879875
25.658716 1591.2073 738 4286011461
26.686239 1590.9468 736 4286405967
27.706423 1590.6863 734 4286669139
28.814678 1590.6863 734 4286734930
29.873394 1590.5559 733 4286669137
30.979816 1590.5559 733 4286735182
31.979816 1590.2954 731 4286735182
33.027523 1590.1652 730 4286406221
34.128441 1590.1652 730 4286274379
35.170643 1590.0349 729 4286208338
36.269726 1590.0349 729 4286010959
37.368809 1590.0349 729 4285421132
38.467892 1590.0349 729 4285026374
39.500916 1589.9045 728 4284764462
40.598164 1589.9045 728 4284830256
41.625687 1589.7743 727 4284961835
42.64954 1589.644 726 4284764712
43.743118 1589.644 726 4285092137
44.761467 1589.5138 725 4285355566
45.85321 1589.5138 725 4285550894
46.944954 1589.5138 725 4285945652
48.036697 1589.5138 725 4286076473
49.045872 1589.3835 724 4286010680
50.13578 1589.3835 724 4286076204
51.311928 1589.5138 725 4286207791
52.403671 1589.5138 725 4286274601
53.495415 1589.5138 725 4286340394
54.587154 1589.5138 725 4286406189
55.678898 1589.5138 725 4286537776
56.770641 1589.5138 725 4286932534
57.862385 1589.5138 725 4286866740
58.954128 1589.5138 725 4286669639
60.045872 1589.5138 725 4286933067
61.137615 1589.5138 725 4286670922
62.333946 1589.644 726 4288447333
63.427525 1589.644 726 4288118913
64.629356 1589.7743 727 4293382353
65.72477 1589.7743 727 4294438639
66.932114 1589.9045 728 4294967039
68.029358 1589.9045 728 4294966270
69.242203 1590.0349 729 4294965499
70.341286 1590.0349 729 4294965499
71.559631 1590.1652 730 4294966527
72.660553 1590.1652 730 4294967039
73.884407 1590.2954 731 4294967039
74.98716 1590.2954 731 4294966526
76.343117 1590.5559 733 4294966269
77.57798 1590.6863 734 4294833660
79.207336 1591.2073 738 4294965759
80.322937 1591.2073 738 4294965755
81.572479 1591.3376 739 4294833912
82.689911 1591.3376 739 4294898940
84.082565 1591.5981 741 4294767354
-20.411009 1591.3761 748 4284951552
-19.21468 1591.1193 746 4286399236
-18.084404 1591.1193 746 4288107820
-16.926605 1590.9908 745 4290936919
-15.772477 1590.8624 744 4292255120
-14.622019 1590.7339 743 4293110173
-13.497248 1590.7339 743 4294626508
-12.372478 1590.7339 743 4294957528
-11.229358 1590.6055 742 4294500832
-10.106422 1590.6055 742 4294632418
-8.9834862 1590.6055 742 4293448421
-7.8477063 1590.4771 741 4291869646
-6.7266054 1590.4771 741 4287136897
-5.6055045 1590.4771 741 4286281588
6.7486238 1590.7339 743 4286405912
7.8733945 1590.7339 743 4286274327
8.9981651 1590.7339 743 4286601245
10.106422 1590.6055 742 4286601245
11.229358 1590.6055 742 4286208545
12.311927 1590.3486 740 4286208545
13.409174 1590.2202 739 4286141998
18.14312 1591.3761 748 4285942560
19.21468 1591.1193 746 4286139940
20.344954 1591.1193 746 4285615633
21.405504 1590.8624 744 4285615633
22.495413 1590.7339 743 4285681967
23.543119 1590.4771 741 4285418794
24.583487 1590.2202 739 4285155104
25.658716 1590.0918 738 4285155104
26.730276 1589.9633 737 4284631838
27.706423 1589.578 734 4284631838
28.814678 1589.578 734 4285158453
29.922935 1589.578 734 4284434729
30.979816 1589.4496 733 4284433935
32.033028 1589.321 732 4284762643
33.082569 1589.1926 731 4285223217
34.185322 1589.1926 731 4285025581
35.229359 1589.0642 730 4284829231
36.269726 1588.9358 729 4284829231
37.368809 1588.9358 729 4285157681
38.467892 1588.9358 729 4285157681
39.566971 1588.9358 729 4284961060
40.666054 1588.9358 729 4285355818
41.695412 1588.8074 728 4285879593
42.79266 1588.8074 728 4285484835
43.816513 1588.679 727 4285155354
44.836697 1588.5504 726 4286142250
45.930275 1588.5504 726 4286076975
47.023853 1588.5504 726 4286076975
48.117432 1588.5504 726 4285943851
49.21101 1588.5504 726 4286141486
50.220184 1588.422 725 4286337568
51.398167 1588.5504 726 4286798119
52.491745 1588.5504 726 4286340396
53.58532 1588.5504 726 4286406189
54.678898 1588.5504 726 4286406705
55.772476 1588.5504 726 4286669877
56.770641 1588.422 725 4286801468
57.959633 1588.5504 726 4286932797
59.053211 1588.5504 726 4286800975
60.14679 1588.5504 726 4286932817
61.240368 1588.5504 726 4286670922
62.438534 1588.679 727 4288118368
63.533943 1588.679 727 4288119424
64.737617 1588.8074 728 4293909465
65.834862 1588.8074 728 4294635765
66.932114 1588.8074 728 4294966527
68.14312 1588.9358 729 4294965497
69.242203 1588.9358 729 4294965755
70.341286 1588.9358 729 4294965243
71.559631 1589.0642 730 4294965243
72.781654 1589.1926 731 4294965499
74.007339 1589.321 732 4294966270
75.236694 1589.4496 733 4294966013
76.469727 1589.578 734 4294965755
77.963303 1589.9633 737 4294702840
79.077065 1589.9633 737 4294966269
80.322937 1590.0918 738 4294966527
81.572479 1590.2202 739 4294834428
82.825691 1590.3486 740 4294898938
-21.579817 1590.3688 749 4291329932
-20.444036 1590.3688 749 4293643894
-19.277063 1590.2422 748 4294963609
-18.084404 1589.989 746 4294965752
-16.954128 1589.989 746 4294967295
-15.772477 1589.7358 744 4294967295
-14.622019 1589.6091 743 4294967295
-13.497248 1589.6091 743 4294967295
-12.372478 1589.6091 743 4294967295
-11.229358 1589.4825 742 4294967295
-10.106422 1589.4825 742 4294967295
-8.9834862 1589.4825 742 4294967295
-7.8477063 1589.356 741 4293517537
-6.7155962 1589.2294 740 4291142838
11.229358 1589.4825 742 4286208545
18.172478 1590.3688 749 4285944605
19.277063 1590.2422 748 4285813276
20.411009 1590.2422 748 4285746979
21.475229 1589.989 746 4285615392
22.568808 1589.8624 745 4285614888
23.620184 1589.6091 743 4285746731
24.623854 1589.2294 740 4285287693
25.700918 1589.1028 739 4285287693
26.730276 1588.8495 737 4285025288
27.798164 1588.7229 736 4285091081
28.910091 1588.7229 736 4284960281
29.922935 1588.4697 734 4284894232
30.979816 1588.3431 733 4284958993
32.086239 1588.3431 733 4285024786
33.192661 1588.3431 733 4285286943
34.242203 1588.2166 732 4285352736
35.288074 1588.0898 731 4285025052
36.330276 1587.9633 730 4284893722
37.431194 1587.9633 730 4285092369
38.532108 1587.9633 730 4285487127
39.633026 1587.9633 730 4285945377
40.733944 1587.9633 730 4286274342
41.765137 1587.8367 729 4286011935
42.86422 1587.8367 729 4285551385
43.889908 1587.7101 728 4286011686
44.987156 1587.7101 728 4286340394
46.007339 1587.5835 727 4286011182
47.102753 1587.5835 727 4286011182
48.198166 1587.5835 727 4286273586
49.21101 1587.4569 726 4286273586
50.304588 1587.4569 726 4286535463
51.398167 1587.4569 726 4286732842
52.579815 1587.5835 727 4286340396
53.58532 1587.4569 726 4286340396
54.678898 1587.4569 726 4286274871
55.772476 1587.4569 726 4286669629
56.961468 1587.5835 727 4286934334
58.056881 1587.5835 727 4287394885
59.152294 1587.5835 727 4287328870
60.247707 1587.5835 727 4287263077
61.343121 1587.5835 727 4287066711
62.543118 1587.7101 728 4287856227
63.640366 1587.7101 728 4288317564
64.845871 1587.8367 729 4294370264
65.944954 1587.8367 729 4294966524
67.044037 1587.8367 729 4294967295
68.256882 1587.9633 730 4294967295
69.357796 1587.9633 730 4294967295
70.458717 1587.9633 730 4294967295
71.678902 1588.0898 731 4294967295
72.902756 1588.2166 732 4294967295
74.130272 1588.3431 733 4294967039
75.361465 1588.4697 734 4294966781
76.849541 1588.8495 737 4294967295
78.091743 1588.9762 738 4294967295
79.337616 1589.1028 739 4294967037
80.455048 1589.1028 739 4294966783
81.706421 1589.2294 740 4294966527
82.825691 1589.2294 740 4294966527
87.737617 1590.6221 751 4294966015
88.877068 1590.6221 751 4294965247
90.01651 1590.6221 751 4294899455
-21.579817 1589.233 749 4292912278
-20.444036 1589.233 749 4294694088
-19.277063 1589.1083 748 4294965999
-18.084404 1588.8588 746 4294967295
-16.926605 1588.7339 745 4294967295
-15.772477 1588.6091 744 4294967295
-14.645871 1588.6091 744 4294967295
-13.497248 1588.4844 743 4294967295
-12.372478 1588.4844 743 4294967295
-11.247706 1588.4844 743 4294967295
-10.106422 1588.3596 742 4294967295
-8.9981651 1588.4844 743 4294967295
-7.8605504 1588.3596 742 4293452005
18.201836 1589.3578 750 4285944357
19.308256 1589.233 749 4285812772
20.444036 1589.233 749 4285944596
21.544954 1589.1083 748 4285615631
22.605505 1588.8588 746 4285681185
23.697248 1588.7339 745 4285746979
24.78532 1588.6091 744 4285419281
25.827522 1588.3596 742 4285287695
26.818348 1587.9854 739 4285484295
27.889908 1587.8606 738 4285550088
28.910091 1587.611 736 4285287693
30.022018 1587.611 736 4285221899
31.031193 1587.3615 734 4285287683
32.13945 1587.3615 734 4285484806
33.192661 1587.2367 733 4285942560
34.299084 1587.2367 733 4286074147
35.34679 1587.1119 732 4285615390
36.390827 1586.9872 731 4285418011
37.49358 1586.9872 731 4285748244
38.596329 1586.9872 731 4285880086
39.699081 1586.9872 731 4286076443
40.733944 1586.8624 730 4286274079
41.834862 1586.8624 730 4286076193
42.93578 1586.8624 730 4285813278
43.963303 1586.7377 729 4286143798
45.062386 1586.7377 729 4286143798
46.161469 1586.7377 729 4285945890
47.181652 1586.6128 728 4286077477
48.2789 1586.6128 728 4286601256
49.293579 1586.488 727 4286601256
50.304588 1586.3633 726 4286535459
51.484406 1586.488 727 4286733094
52.579815 1586.488 727 4286340646
53.675228 1586.488 727 4286274853
54.770641 1586.488 727 4286274853
55.866055 1586.488 727 4286998833
56.961468 1586.488 727 4286999635
58.154129 1586.6128 728 4287394393
59.251377 1586.6128 728 4287197798
60.348625 1586.6128 728 4287066211
61.548622 1586.7377 729 4287132761
62.647705 1586.7377 729 4287856227
63.746788 1586.7377 729 4288777863
64.954132 1586.8624 730 4294962405
66.055046 1586.8624 730 4294966527
67.15596 1586.8624 730 4294967295
68.256882 1586.8624 730 4294967295
69.357796 1586.8624 730 4294967295
70.576149 1586.9872 731 4294967295
71.678902 1586.9872 731 4294967295
72.902756 1587.1119 732 4294967295
74.130272 1587.2367 733 4294967295
75.361465 1587.3615 734 4294967295
76.976151 1587.8606 738 4294967295
78.091743 1587.8606 738 4294967295
79.337616 1587.9854 739 4294966783
80.455048 1587.9854 739 4294966783
82.108253 1588.4844 743 4294966783
83.640366 1588.8588 746 4294966013
84.770645 1588.8588 746 4294966527
86.319267 1589.233 749 4294966783
87.737617 1589.4825 751 4294965757
88.877068 1589.4825 751 4294571256
90.01651 1589.4825 751 4294637049
-21.614679 1588.2202 750 4294967289
-20.444036 1588.0973 749 4294967295
-19.277063 1587.9744 748 4294967295
-18.14312 1587.9744 748 4294967295
-16.954128 1587.7284 746 4294967295
-15.798165 1587.6055 745 4294967292
-14.645871 1587.4825 744 4294967295
-13.497248 1587.3596 743 4294967295
-12.372478 1587.3596 743 4294967295
-11.247706 1587.3596 743 4294967295
-10.122936 1587.3596 743 4294967295
-8.9981651 1587.3596 743 4294967295
19.370642 1588.3431 751 4285747483
20.444036 1588.0973 749 4286008840
21.579817 1588.0973 749 4285943047
22.6789 1587.9744 748 4286008340
23.735781 1587.7284 746 4286403098
24.825687 1587.6055 745 4285615633
25.869724 1587.3596 743 4285352204
26.818348 1586.8679 739 4285549824
27.889908 1586.745 738 4285549824
28.957798 1586.6221 737 4285287693
30.121101 1586.745 738 4285221899
31.133945 1586.499 736 4285287936
32.352295 1586.745 738 4285485312
33.412846 1586.6221 737 4285615390
34.355965 1586.2532 734 4285681439
35.405506 1586.1302 733 4285419044
36.390827 1585.8844 731 4285550631
37.49358 1585.8844 731 4285551385
38.596329 1585.8844 731 4285617178
39.699081 1585.8844 731 4285879050
40.801834 1585.8844 731 4286076686
41.904587 1585.8844 731 4286010398
42.93578 1585.7615 730 4285944605
44.036697 1585.7615 730 4285813550
45.137615 1585.7615 730 4285682221
46.238533 1585.7615 730 4286010904
47.339451 1585.7615 730 4286142490
48.440369 1585.7615 730 4286469919
49.458717 1585.6385 729 4286469919
50.557796 1585.6385 729 4286469656
51.656879 1585.6385 729 4286930207
52.667889 1585.5156 728 4286274853
53.855045 1585.6385 729 4286472232
54.862385 1585.5156 728 4286473000
55.959633 1585.5156 728 4287196723
57.056881 1585.5156 728 4287262561
58.154129 1585.5156 728 4287262561
59.251377 1585.5156 728 4287130982
60.449543 1585.6385 729 4287262825
61.548622 1585.6385 729 4287460956
62.752293 1585.7615 730 4288316265
63.85321 1585.7615 730 4289895324
64.954132 1585.7615 730 4294967295
66.055046 1585.7615 730 4294967295
67.15596 1585.7615 730 4294967295
68.370644 1585.8844 731 4294967295
69.473396 1585.8844 731 4294967295
70.576149 1585.8844 731 4294967295
71.798164 1586.0073 732 4294967295
73.023849 1586.1302 733 4294967295
74.253212 1586.2532 734 4294967295
75.735779 1586.6221 737 4294967295
76.976151 1586.745 738 4294967295
78.220184 1586.8679 739 4294965755
79.337616 1586.8679 739 4294636534
80.851379 1587.2367 742 4294833147
82.242203 1587.4825 744 4294965247
83.640366 1587.7284 746 4294965498
85.045868 1587.9744 748 4294965755
86.458717 1588.2202 750 4294966527
87.737617 1588.3431 751 4294637049
88.877068 1588.3431 751 4294307566
-22.825687 1587.3247 752 4294965753
-21.614679 1587.0825 750 4294967295
-20.477064 1587.0825 750 4294967291
-19.308256 1586.9614 749 4294966263
-18.14312 1586.8403 748 4294965753
-16.954128 1586.5981 746 4294965240
-15.772477 1586.356 744 4294899190
-14.645871 1586.356 744 4294967295
-13.497248 1586.2349 743 4294967295
-12.372478 1586.2349 743 4294967295
-11.247706 1586.2349 743 4294967038
-10.106422 1586.1138 742 4294967295
19.401834 1587.3247 752 4285615392
20.510092 1587.2036 751 4286139919
21.614679 1587.0825 750 4285942797
22.715597 1586.9614 749 4286073363
23.812843 1586.8403 748 4286073363
24.866055 1586.5981 746 4285023744
25.911926 1586.356 744 4285418499
26.950459 1586.1138 742 4285550088
27.93578 1585.7505 739 4285418501
29.005505 1585.6294 738 4285484043
30.121101 1585.6294 738 4285615885
31.185322 1585.5083 737 4285353992
32.405506 1585.7505 739 4285419785
33.467892 1585.6294 738 4285419294
34.526604 1585.5083 737 4285485087
35.464222 1585.1449 734 4285354021
36.511925 1585.0238 733 4285288228
37.555962 1584.9027 732 4285485353
38.660549 1584.9027 732 4285551146
39.765137 1584.9027 732 4285878802
40.801834 1584.7816 731 4286076182
41.904587 1584.7816 731 4286010398
42.93578 1584.6605 730 4286010398
44.110092 1584.7816 731 4285944885
45.212845 1584.7816 731 4285879091
46.238533 1584.6605 730 4286337568
47.41835 1584.7816 731 4286469154
48.521099 1584.7816 731 4286469414
49.623852 1584.7816 731 4286601256
50.726604 1584.7816 731 4286535979
51.829357 1584.7816 731 4286667564
52.844036 1584.6605 730 4286273849
53.944954 1584.6605 730 4286932036
55.045872 1584.6605 730 4286670663
56.053211 1584.5394 729 4287262543
57.152294 1584.5394 729 4287459184
58.251377 1584.5394 729 4287262062
59.449543 1584.6605 730 4287327586
60.550457 1584.6605 730 4287524966
61.651375 1584.6605 730 4287789407
62.752293 1584.6605 730 4288447081
63.85321 1584.6605 730 4291077020
65.062386 1584.7816 731 4294967295
66.165138 1584.7816 731 4294967295
67.267891 1584.7816 731 4294967295
68.484406 1584.9027 732 4294967295
69.473396 1584.7816 731 4294967295
70.811012 1585.0238 733 4294967295
72.036697 1585.1449 734 4294967295
73.387154 1585.3872 736 4294967295
74.622017 1585.5083 737 4294967295
75.86055 1585.6294 738 4294901247
77.102753 1585.7505 739 4294967295
78.348625 1585.8716 740 4294965498
79.467888 1585.8716 740 4294767863
80.851379 1586.1138 742 4294635511
82.242203 1586.356 744 4294767354
84.047707 1586.9614 749 4294636534
85.183487 1586.9614 749 4294636534
87.01651 1587.567 754 4294571254
88.02018 1587.4459 753 4294308338
89.1633 1587.4459 753 4293978090
-22.862385 1586.3027 753 4294964466
-21.649542 1586.0642 751 4294898158
-20.510092 1586.0642 751 4294964974
-19.339449 1585.9449 750 4294965231
-18.14312 1585.7064 748 4294964985
-16.954128 1585.4679 746 4294965499
-15.798165 1585.3486 745 4294964985
-14.669724 1585.3486 745 4294967295
-13.519266 1585.2294 744 4294967295
-12.39266 1585.2294 744 4294967295
-11.247706 1585.1101 743 4294967295
-10.122936 1585.1101 743 4294967295
19.401834 1586.1835 752 4285550883
20.543119 1586.1835 752 4286008353
21.614679 1585.9449 750 4285942560
22.715597 1585.8257 749 4285876765
23.812843 1585.7064 748 4285679387
24.866055 1585.4679 746 4285942795
25.954128 1585.3486 745 4285942795
26.994495 1585.1101 743 4285615883
28.119267 1585.1101 743 4285484297
29.196331 1584.9908 742 4285484043
30.269724 1584.8716 741 4285615885
31.288073 1584.6331 739 4285615883
32.405506 1584.6331 739 4285615883
33.522934 1584.6331 739 4285615390
34.583485 1584.5138 738 4285747233
35.699081 1584.5138 738 4285484837
36.814678 1584.5138 738 4285550631
37.618347 1583.9175 733 4285550381
38.72477 1583.9175 733 4285550381
39.831192 1583.9175 733 4286074147
40.869724 1583.7982 732 4286403111
41.974312 1583.7982 732 4286010398
43.078899 1583.7982 732 4286010398
44.183487 1583.7982 732 4286207043
45.288074 1583.7982 732 4286075201
46.392662 1583.7982 732 4286271791
47.576145 1583.9175 733 4286468914
48.601833 1583.7982 732 4286601002
49.706421 1583.7982 732 4286732844
50.811008 1583.7982 732 4286470983
51.915596 1583.7982 732 4286470983
53.020184 1583.7982 732 4286406484
54.124771 1583.7982 732 4286998622
55.137615 1583.679 731 4286802776
56.14679 1583.5596 730 4287657828
57.247707 1583.5596 730 4287329147
58.348625 1583.5596 730 4286868596
59.449543 1583.5596 730 4287196526
60.550457 1583.5596 730 4287723126
61.754128 1583.679 731 4287395163
62.961468 1583.7982 732 4288711023
64.172478 1583.9175 733 4290553238
65.2789 1583.9175 733 4294966509
66.385323 1583.9175 733 4294967295
67.491745 1583.9175 733 4294967039
68.598167 1583.9175 733 4294967039
69.70459 1583.9175 733 4294967295
70.928444 1584.0367 734 4294967039
72.27523 1584.2753 736 4294966269
73.508255 1584.3945 737 4294966269
74.744957 1584.5138 738 4294966526
75.985321 1584.6331 739 4294966783
77.229355 1584.7523 740 4294967039
78.477066 1584.8716 741 4294966013
79.728439 1584.9908 742 4294966013
80.98349 1585.1101 743 4294898938
81.974312 1584.9908 742 4294898938
84.862389 1586.5413 755 4294833399
85.871559 1586.422 754 4294833399
87.15596 1586.5413 755 4294636013
88.30275 1586.5413 755 4294307305
89.449539 1586.5413 755 4294175214
-22.862385 1585.1597 753 4294437355
-21.684404 1585.0422 752 4294700271
-20.510092 1584.9248 751 4294570220
-19.339449 1584.8074 750 4294701806
-18.14312 1584.5725 748 4294371562
-16.954128 1584.3376 746 4294897906
-15.798165 1584.2202 745 4294832113
-14.669724 1584.2202 745 4294965499
-13.541285 1584.2202 745 4294967294
-12.39266 1584.1028 744 4294967295
-11.266055 1584.1028 744 4294967295
17.394495 1586.2166 762 4285550883
18.495413 1585.9817 760 4285485603
19.651377 1585.9817 760 4285551396
20.609175 1585.2771 754 4285615140
21.649542 1584.9248 751 4285549347
22.715597 1584.6899 749 4285745436
23.812843 1584.5725 748 4285679387
24.946789 1584.5725 748 4285747481
25.99633 1584.3376 746 4285615894
27.082569 1584.2202 745 4285484295
28.119267 1583.9854 743 4285484295
29.244038 1583.9854 743 4285549838
30.319265 1583.8679 742 4285746960
31.390825 1583.7505 741 4285746962
32.405506 1583.5156 739 4285746962
33.57798 1583.6331 740 4285615140
34.640366 1583.5156 739 4285746983
35.757797 1583.5156 739 4286140444
36.814678 1583.3982 738 4286206237
37.930275 1583.3982 738 4286336551
38.78899 1582.9285 734 4286204965
39.897247 1582.9285 734 4285942795
40.937614 1582.811 733 4286666517
42.044037 1582.811 733 4286469414
43.150459 1582.811 733 4286272291
44.256882 1582.811 733 4286337598
45.363304 1582.811 733 4286205755
46.469727 1582.811 733 4286337568
47.576145 1582.811 733 4286600741
48.682568 1582.811 733 4286535477
49.78899 1582.811 733 4286798649
50.895412 1582.811 733 4286471496
52.001835 1582.811 733 4286668875
53.108257 1582.811 733 4286736982
54.21468 1582.811 733 4286539604
55.229359 1582.6936 732 4286408779
56.240368 1582.5762 731 4287329881
57.343121 1582.5762 731 4287462264
58.445873 1582.5762 731 4287396471
59.647705 1582.6936 732 4287593321
60.752293 1582.6936 732 4287461734
61.959633 1582.811 733 4287000920
63.066055 1582.811 733 4288711538
64.172478 1582.811 733 4290620074
65.387154 1582.9285 734 4294966266
66.495415 1582.9285 734 4294967295
67.603668 1582.9285 734 4294966782
68.711929 1582.9285 734 4294767863
70.166969 1583.2808 737 4294966270
71.1633 1583.1633 736 4294966526
72.394493 1583.2808 737 4294768633
73.629356 1583.3982 738 4294965498
74.744957 1583.3982 738 4294965755
76.359634 1583.8679 742 4294966013
77.609177 1583.9854 743 4294966013
78.733948 1583.9854 743 4294833399
79.858719 1583.9854 743 4294833399
80.98349 1583.9854 743 4294635511
83.58165 1585.2771 754 4294569718
84.726608 1585.2771 754 4294437869
86.009171 1585.3945 755 4294240746
87.15596 1585.3945 755 4294108391
88.30275 1585.3945 755 4294108391
89.449539 1585.3945 755 4293977320
-22.862385 1584.0165 753 4294437871
-21.719267 1584.0165 753 4294635250
-20.543119 1583.9009 752 4294636013
-19.339449 1583.6697 750 4294899442
-18.172478 1583.5541 749 4294372846
-17.009174 1583.4385 748 4294767604
-15.823853 1583.2073 746 4294635502
-14.693578 1583.2073 746 4294569709
-13.563303 1583.2073 746 4294898418
-12.412844 1583.0918 745 4294965495
17.366972 1584.9413 761 4285089828
18.524771 1584.9413 761 4285616407
19.620184 1584.7101 759 4285879836
20.708258 1584.4789 757 4285943855
21.719267 1584.0165 753 4285746477
22.715597 1583.5541 749 4285615390
23.851376 1583.5541 749 4285483804
24.946789 1583.4385 748 4285419281
25.99633 1583.2073 746 4285419281
27.082569 1583.0918 745 4285484295
28.165138 1582.9762 744 4285418501
29.291742 1582.9762 744 4285811463
30.368807 1582.8606 743 4285943049
31.442202 1582.745 742 4286008853
32.511925 1582.6294 741 4286140440
33.633026 1582.6294 741 4285943855
34.697247 1582.5138 740 4285746477
35.816513 1582.5138 740 4286206487
36.875229 1582.3982 739 4286864160
37.992661 1582.3982 739 4286403098
39.045872 1582.2826 738 4286337305
40.029358 1582.0514 736 4285944855
41.005505 1581.8202 734 4286274077
42.113762 1581.8202 734 4285944855
43.150459 1581.7046 733 4285089802
44.330276 1581.8202 734 4285089328
45.438534 1581.8202 734 4286010430
46.546787 1581.8202 734 4286535459
47.655045 1581.8202 734 4286601508
48.763302 1581.8202 734 4286469938
49.871559 1581.8202 734 4287588162
50.979816 1581.8202 734 4286933844
52.088074 1581.8202 734 4286802258
53.108257 1581.7046 733 4286539856
54.21468 1581.7046 733 4286210634
55.321102 1581.7046 733 4286342463
56.333946 1581.589 732 4287197772
57.533943 1581.7046 733 4287593321
58.640366 1581.7046 733 4287659114
59.746788 1581.7046 733 4287658853
60.85321 1581.7046 733 4287527266
62.062386 1581.8202 734 4287460960
63.170643 1581.8202 734 4289697666
64.2789 1581.8202 734 4291342266
65.603668 1582.0514 736 4294967295
66.825691 1582.167 737 4294967295
67.939453 1582.167 737 4294967295
68.939453 1582.0514 736 4294967039
70.166969 1582.167 737 4294966783
71.280731 1582.167 737 4294967035
72.513763 1582.2826 738 4294703092
73.750458 1582.3982 739 4294636282
75.113762 1582.6294 741 4294504695
76.359634 1582.745 742 4294569970
77.609177 1582.8606 743 4294569970
78.862389 1582.9762 744 4294108906
80.249542 1583.2073 746 4293779941
81.644035 1583.4385 748 4293977840
83.98349 1584.4789 757 4294109169
84.726608 1584.1321 754 4293845988
86.009171 1584.2477 755 4293977318
87.43486 1584.4789 757 4293845734
88.58532 1584.4789 757 4293779941
-22.862385 1582.8734 753 4294437869
-21.684404 1582.7596 752 4294437869
-20.543119 1582.7596 752 4294241257
-19.339449 1582.5321 750 4294307051
-18.172478 1582.4183 749 4294175464
-17.036697 1582.4183 749 4294438637
-15.875229 1582.3046 748 4294438891
-14.741284 1582.3046 748 4294570220
-13.60734 1582.3046 748 4294766316
17.449541 1584.1248 764 4285023771
18.524771 1583.7834 761 4284827175
19.651377 1583.6697 760 4285616435
20.708258 1583.3285 757 4285944135
21.754128 1582.9872 754 4285878341
22.825687 1582.7596 752 4285813298
23.92844 1582.6459 751 4285550383
25.027523 1582.5321 750 4285615905
26.080734 1582.3046 748 4285484576
27.21468 1582.3046 748 4285549597
28.25688 1582.077 746 4285549597
29.339449 1581.9633 745 4286139660
30.368807 1581.7358 743 4286468369
31.493578 1581.7358 743 4286205735
32.565136 1581.6221 742 4286205735
33.688072 1581.6221 742 4285943873
34.754128 1581.5083 741 4285878080
35.875229 1581.5083 741 4286403641
36.99633 1581.5083 741 4286272055
38.055046 1581.3945 740 4286074158
39.110092 1581.2808 739 4286271537
40.161469 1581.167 738 4285878839
41.277065 1581.167 738 4285615924
42.253212 1580.9395 736 4284434214
43.222019 1580.7119 734 4283973663
44.477066 1580.9395 736 4284496425
45.588989 1580.9395 736 4286272836
46.700916 1580.9395 736 4286666788
47.655045 1580.7119 734 4286666788
48.92477 1580.9395 736 4286338084
49.871559 1580.7119 734 4287522358
50.979816 1580.7119 734 4286737499
52.088074 1580.7119 734 4286605912
53.196331 1580.7119 734 4286736465
54.304588 1580.7119 734 4286670672
55.321102 1580.5981 733 4286408266
56.427525 1580.5981 733 4287131988
57.533943 1580.5981 733 4287198050
58.640366 1580.5981 733 4287461221
59.845871 1580.7119 734 4287460960
61.155964 1580.9395 736 4287658082
62.473396 1581.167 738 4287854428
63.484406 1581.0532 737 4290091390
64.70459 1581.167 738 4291932859
65.820183 1581.167 738 4294963963
66.935783 1581.167 738 4294965497
68.051376 1581.167 738 4294964213
69.053207 1581.0532 737 4294767863
70.28257 1581.167 738 4294504947
71.398163 1581.167 738 4294505458
72.633026 1581.2808 739 4294505458
73.992661 1581.5083 741 4294306799
75.359634 1581.7358 743 4294175212
76.609177 1581.8495 744 4293846248
77.862389 1581.9633 745 4293846248
79.119263 1582.077 746 4293780454
80.510094 1582.3046 748 4293714661
81.776146 1582.4183 749 4293846252
83.58165 1582.9872 754 4293648616
84.862389 1583.101 755 4293648868
86.284401 1583.3285 757 4293648868
87.43486 1583.3285 757 4293648355
88.58532 1583.3285 757 4293845734
-22.899082 1581.8422 754 4294437867
-21.719267 1581.7302 753 4294503916
-20.543119 1581.6184 752 4294437869
-19.370642 1581.5065 751 4294437869
-18.201836 1581.3945 750 4294307051
-17.036697 1581.2826 749 4294570222
-15.900917 1581.2826 749 4294438637
-14.765138 1581.2826 749 4294636015
-13.629357 1581.2826 749 4294503662
16.286238 1582.9614 764 4284631062
17.449541 1582.9614 764 4281078272
18.524771 1582.6257 761 4280817421
19.651377 1582.5138 760 4281409558
20.741285 1582.2899 758 4282457385
21.78899 1581.9541 755 4282260006
22.862385 1581.7302 753 4283970842
23.92844 1581.5065 751 4285615924
25.027523 1581.3945 750 4285091587
26.080734 1581.1707 748 4283775744
27.21468 1581.1707 748 4283972882
28.25688 1580.9468 746 4284038675
29.339449 1580.8348 745 4285221888
30.418348 1580.7229 744 4285748232
31.544954 1580.7229 744 4285287683
32.618347 1580.611 743 4284037376
33.688072 1580.499 742 4283444778
34.811008 1580.499 742 4282852640
35.933945 1580.499 742 4283181592
36.99633 1580.3872 741 4283445021
38.117432 1580.3872 741 4283772448
39.110092 1580.1633 739 4284693550
40.227524 1580.1633 739 4284170776
41.277065 1580.0514 738 4282262784
42.392662 1580.0514 738 4281932324
43.436699 1579.9395 737 4281011222
44.550457 1579.9395 737 4282982966
45.664219 1579.9395 737 4286206567
46.777981 1579.9395 737 4286601508
47.812843 1579.8275 736 4286535459
48.92477 1579.8275 736 4286011182
50.036697 1579.8275 736 4286998077
50.979816 1579.6036 734 4286737499
52.088074 1579.6036 734 4286671706
53.196331 1579.6036 734 4286736978
54.304588 1579.6036 734 4286736978
55.412846 1579.6036 734 4286671960
56.521099 1579.6036 734 4287198304
57.629356 1579.6036 734 4287329633
58.737614 1579.6036 734 4287592806
60.14312 1579.9395 737 4287527012
61.3578 1580.0514 738 4288053357
62.473396 1580.0514 738 4287986271
63.588989 1580.0514 738 4290551941
64.70459 1580.0514 738 4291934657
65.820183 1580.0514 738 4294963191
66.935783 1580.0514 738 4294899188
68.1633 1580.1633 739 4294767602
69.280731 1580.1633 739 4294109421
70.398163 1580.1633 739 4293780457
71.515594 1580.1633 739 4293912295
72.871559 1580.3872 741 4294109417
74.113762 1580.499 742 4294109671
75.482567 1580.7229 744 4294241257
76.733948 1580.8348 745 4293846502
78.242203 1581.1707 748 4293846502
79.376144 1581.1707 748 4293912297
80.510094 1581.1707 748 4293846248
81.908257 1581.3945 750 4293714409
83.58165 1581.8422 754 4293517287
84.862389 1581.9541 755 4293648870
86.42202 1582.2899 758 4293780457
87.57431 1582.2899 758 4293714409
-25.229359 1580.8074 755 4293977316
-24.082569 1580.8074 755 4294306537
-22.899082 1580.6973 754 4294635248
-21.754128 1580.6973 754 4294569455
-20.576147 1580.5872 753 4294437867
-19.401834 1580.4771 752 4294437867
-18.231194 1580.3669 751 4294438637
-17.06422 1580.2568 750 4294570222
-15.926605 1580.2568 750 4294307051
16.286238 1581.7982 764 4284040474
17.394495 1581.578 762 4279435264
18.524771 1581.4679 761 4278190080
19.651377 1581.3578 760 4278979596
20.774311 1581.2477 759 4279241476
21.858715 1581.0275 757 4279964942
22.899082 1580.6973 754 4282261248
23.966972 1580.4771 752 4284103448
25.06789 1580.3669 751 4283840539
26.122936 1580.1467 749 4282722315
27.21468 1580.0367 748 4282525967
28.348623 1580.0367 748 4282657553
29.387156 1579.8165 746 4284037639
30.46789 1579.7064 745 4284630033
31.544954 1579.5963 744 4284303128
32.618347 1579.4862 743 4283579661
33.743118 1579.4862 743 4281542693
34.811008 1579.3761 742 4279371780
35.933945 1579.3761 742 4279960576
37.056881 1579.3761 742 4281736724
38.117432 1579.2661 741 4282328836
39.174313 1579.156 740 4284368419
40.227524 1579.0459 739 4283515172
41.344955 1579.0459 739 4280488960
42.462387 1579.0459 739 4279635230
43.508255 1578.9358 738 4279174679
44.623852 1578.9358 738 4282588971
45.739449 1578.9358 738 4285878621
46.855045 1578.9358 738 4286339883
47.970642 1578.9358 738 4286274090
49.005505 1578.8257 737 4286011695
50.119267 1578.8257 737 4286998590
51.148624 1578.7156 736 4286605660
52.260551 1578.7156 736 4286539867
53.196331 1578.4954 734 4286540108
54.484406 1578.7156 736 4286474315
55.412846 1578.4954 734 4286737753
56.521099 1578.4954 734 4287198304
57.820183 1578.7156 736 4287198817
58.93211 1578.7156 736 4287001181
60.14312 1578.8257 737 4287394141
61.3578 1578.9358 738 4288249707
62.473396 1578.9358 738 4288314981
63.588989 1578.9358 738 4290815116
64.70459 1578.9358 738 4292067270
65.928444 1579.0459 739 4294962932
67.15596 1579.156 740 4294767604
68.27523 1579.156 740 4294307053
69.394493 1579.156 740 4294109419
70.629356 1579.2661 741 4293846248
71.750458 1579.2661 741 4293845988
73.706421 1580.0367 748 4293845988
74.598167 1579.8165 746 4294042852
75.728439 1579.8165 746 4294042852
77.108253 1580.0367 748 4293844964
78.368805 1580.1467 749 4293910757
79.761467 1580.3669 751 4293846761
80.770645 1580.2568 750 4293715432
82.172478 1580.4771 752 4293452005
83.715599 1580.8074 755 4293452005
