# .PCD v0.7 - Point Cloud Data file format
VERSION 0.7
FIELDS x y z rgb
SIZE 4 4 4 4
TYPE F F F U
COUNT 1 1 1 1
WIDTH 1374
HEIGHT 1
VIEWPOINT 0 0 0 1 0 0 0
POINTS 1374
DATA ascii
68.370644 1605.7339 731 4294967295
69.588989 1605.8899 732 4294967295
70.693581 1605.8899 732 4294967295
72.036697 1606.2018 734 4294967295
73.387154 1606.5138 736 4294967295
74.499084 1606.5138 736 4294967295
75.361465 1606.2018 734 4294967295
76.849541 1606.6697 737 4294967295
78.091743 1606.8257 738 4294967295
79.337616 1606.9817 739 4294572537
80.719269 1607.2936 741 4293706117
81.84037 1607.2936 741 4288771898
83.911926 1608.3854 748 4289096984
84.770645 1608.0734 746 4289425948
108.40734 1619.1467 817 4294967295
109.50826 1618.9908 816 4294833912
110.76698 1618.9908 816 4294963965
112.02569 1618.9908 816 4294897916
112.95413 1618.679 814 4294898168
114.0422 1618.5229 813 4294963961
115.1266 1618.3669 812 4294634998
116.37798 1618.3669 812 4294634998
117.62936 1618.3669 812 4294767352
118.53211 1618.0551 810 4294833145
119.77982 1618.0551 810 4294569718
120.67156 1617.7432 808 4294767354
121.55596 1617.4312 806 4294965242
122.79633 1617.4312 806 4294966527
13.563303 1606.9431 746 4284369227
14.669724 1606.7889 745 4284369227
15.746789 1606.4807 743 4284237894
16.844036 1606.3267 742 4284369223
17.937614 1606.1725 741 4283646270
19.027523 1606.0183 740 4284172614
20.080734 1605.7101 738 4284238668
21.161469 1605.5559 737 4284238668
22.238533 1605.4019 736 4284107591
23.273394 1605.0936 734 4284041798
24.381651 1605.0936 734 4284369477
25.447706 1604.9395 733 4284369477
26.554129 1604.9395 733 4284434507
27.614679 1604.7853 732 4284434507
28.67156 1604.6312 731 4284697161
29.724771 1604.4771 730 4284828748
30.825687 1604.4771 730 4284762955
31.873394 1604.323 729 4284631368
32.972477 1604.323 729 4284369227
34.014679 1604.1688 728 4284369227
40.689907 1618.811 823 4284107339
41.840366 1618.5028 821 4283975753
43.233028 1618.811 823 4284107591
44.504585 1618.811 823 4284238920
45.776146 1618.811 823 4283977549
47.047707 1618.811 823 4284043343
48.319267 1618.811 823 4284436304
49.590824 1618.811 823 4284304717
50.862385 1618.811 823 4284041546
52.133945 1618.811 823 4284041546
53.251377 1618.5028 821 4283320389
54.519264 1618.5028 821 4283451976
55.787155 1618.5028 821 4284896323
57.055046 1618.5028 821 4288646524
58.322937 1618.5028 821 4290093205
59.504585 1618.3486 820 4289830033
60.770641 1618.3486 820 4288515738
61.85688 1618.0404 818 4284699744
63.027523 1617.8862 817 4284962087
64.194496 1617.7321 816 4285620273
65.262383 1617.4238 814 4286274118
66.322937 1617.1156 812 4287458391
67.376144 1616.8074 810 4287589448
68.623856 1616.8074 810 4289102687
69.871559 1616.8074 810 4291734436
62.647705 1604.323 729 4294966775
63.746788 1604.323 729 4294967295
64.845871 1604.323 729 4294967039
65.944954 1604.323 729 4294965757
67.267891 1604.6312 731 4294967295
68.370644 1604.6312 731 4294967295
69.588989 1604.7853 732 4294967295
70.811012 1604.9395 733 4294967295
72.27523 1605.4019 736 4294967295
73.387154 1605.4019 736 4294967295
74.499084 1605.4019 736 4294967295
75.611008 1605.4019 736 4294967295
76.976151 1605.7101 738 4294967295
78.220184 1605.8643 739 4294967295
79.467888 1606.0183 740 4291809485
80.98349 1606.4807 743 4291596631
82.108253 1606.4807 743 4289359670
83.911926 1607.2513 748 4289229337
85.045868 1607.2513 748 4289492766
108.40734 1617.8862 817 4294966527
109.66789 1617.8862 817 4294899705
110.76698 1617.7321 816 4294963450
112.02569 1617.7321 816 4294963450
112.95413 1617.4238 814 4294963702
114.0422 1617.2698 813 4294897908
115.1266 1617.1156 812 4294831861
116.37798 1617.1156 812 4294700275
117.62936 1617.1156 812 4294635252
118.53211 1616.8074 810 4294766838
119.77982 1616.8074 810 4294700791
120.84954 1616.6532 809 4294964220
121.55596 1616.1908 806 4294964985
122.79633 1616.1908 806 4294965242
12.433027 1605.8129 746 4283254594
13.563303 1605.8129 746 4283385160
14.669724 1605.6605 745 4283450953
15.798165 1605.6605 745 4283844166
16.899082 1605.5083 744 4283975753
17.966972 1605.2036 742 4284041546
19.058716 1605.0514 741 4284107339
20.113762 1604.7468 739 4284238668
21.196331 1604.5945 738 4284238668
22.275229 1604.4421 737 4284107591
23.350458 1604.2899 736 4284041798
24.381651 1603.9854 734 4284172099
25.447706 1603.833 733 4284238148
26.554129 1603.833 733 4284237894
27.614679 1603.6808 732 4284237894
28.67156 1603.5284 731 4284369477
29.774311 1603.5284 731 4284435270
30.825687 1603.3761 730 4284435272
31.926605 1603.3761 730 4284435272
33.027523 1603.3761 730 4283845963
34.07156 1603.2239 729 4283845963
35.170643 1603.2239 729 4283845711
36.269726 1603.2239 729 4283845711
43.233028 1617.5394 823 4283714382
38.467892 1603.2239 729 4283714382
39.566971 1603.2239 729 4283582792
47.115597 1617.6918 824 4283714634
41.765137 1603.2239 729 4283844166
42.79266 1603.0715 728 4283580995
50.93578 1617.6918 824 4284170313
52.133945 1617.5394 823 4285946724
53.405506 1617.5394 823 4288185971
54.677063 1617.5394 823 4289699466
55.787155 1617.2349 821 4289437823
57.055046 1617.2349 821 4289503616
58.322937 1617.2349 821 4287724420
59.504585 1617.0825 820 4285553252
60.770641 1617.0825 820 4285027658
61.766972 1616.6257 817 4283514418
63.027523 1616.6257 817 4284830757
64.194496 1616.4734 816 4285883189
57.152294 1603.2239 729 4286669389
66.322937 1615.8643 812 4287195733
67.57431 1615.8643 812 4287523399
68.623856 1615.5596 810 4289892203
61.548622 1603.2239 729 4291605415
62.647705 1603.2239 729 4294967284
63.746788 1603.2239 729 4294967295
64.845871 1603.2239 729 4294967295
65.944954 1603.2239 729 4294965757
67.379814 1603.6808 732 4294833399
68.370644 1603.5284 731 4294966270
69.70459 1603.833 733 4294967295
70.811012 1603.833 733 4294967295
72.394493 1604.4421 737 4294965496
73.508255 1604.4421 737 4294965242
74.622017 1604.4421 737 4294967295
75.86055 1604.5945 738 4294967295
77.102753 1604.7468 739 4294967295
78.605507 1605.2036 742 4294965724
79.858719 1605.356 743 4288974192
81.247704 1605.6605 745 4289818422
82.510094 1605.8129 746 4289423920
84.047707 1606.2698 749 4289360926
85.183487 1606.2698 749 4289755683
107.61468 1617.0825 820 4294965499
108.88074 1617.0825 820 4294966270
109.82752 1616.778 818 4294966527
110.92844 1616.6257 817 4294964729
112.18899 1616.6257 817 4294964729
113.2844 1616.4734 816 4294766838
114.0422 1616.0165 813 4294701045
115.29541 1616.0165 813 4294766066
116.37798 1615.8643 812 4294700273
117.62936 1615.8643 812 4294635252
118.88074 1615.8643 812 4294963961
119.77982 1615.5596 810 4294701558
121.02752 1615.5596 810 4294964731
13.563303 1604.6826 746 4283321423
14.693578 1604.6826 746 4283057994
15.823853 1604.6826 746 4283122502
16.926605 1604.5321 745 4283188551
18.025688 1604.3816 744 4283909960
19.121101 1604.2312 743 4284107339
20.179817 1603.9303 741 4284304717
21.231194 1603.6294 739 4284238668
22.311926 1603.4789 738 4284107591
23.38899 1603.3285 737 4284107591
24.462385 1603.178 736 4284107591
25.489908 1602.8771 734 4284107591
26.598166 1602.8771 734 4284107591
27.660551 1602.7266 733 4284041798
28.719267 1602.5762 732 4283714630
29.774311 1602.4257 731 4283714630
30.877064 1602.4257 731 4283714634
31.926605 1602.2753 730 4283845963
33.027523 1602.2753 730 4283845963
34.128441 1602.2753 730 4283648585
35.229359 1602.2753 730 4283845963
36.330276 1602.2753 730 4283582792
37.431194 1602.2753 730 4283451205
38.532108 1602.2753 730 4283188034
39.566971 1602.1248 729 4283188004
40.666054 1602.1248 729 4283648555
41.765137 1602.1248 729 4283583296
42.86422 1602.1248 729 4283583296
43.963303 1602.1248 729 4286010432
45.062386 1602.1248 729 4287984222
46.161469 1602.1248 729 4289694865
47.260551 1602.1248 729 4290418588
48.359634 1602.1248 729 4290097312
57.055046 1615.9669 821 4288321157
58.322937 1615.9669 821 4285294679
59.504585 1615.8165 820 4284307784
60.594494 1615.5156 818 4285026876
61.766972 1615.3651 817 4285092669
54.954128 1602.1248 729 4285355820
56.053211 1602.1248 729 4286079287
57.152294 1602.1248 729 4286669389
58.154129 1601.9744 728 4287393368
59.35046 1602.1248 729 4287523149
60.449543 1602.1248 729 4290023539
61.548622 1602.1248 729 4292197564
62.752293 1602.2753 730 4294967295
63.85321 1602.2753 730 4294967295
64.954132 1602.2753 730 4294967295
66.055046 1602.2753 730 4294967039
67.379814 1602.5762 732 4294965755
68.484406 1602.5762 732 4294965240
69.70459 1602.7266 733 4294966268
70.811012 1602.7266 733 4294966268
72.394493 1603.3285 737 4294965753
73.629356 1603.4789 738 4294965753
74.744957 1603.4789 738 4294967039
76.234863 1603.9303 741 4294967295
77.482567 1604.0807 742 4294307051
78.733948 1604.2312 743 4294495412
79.858719 1604.2312 743 4289495144
81.379814 1604.6826 746 4290214951
82.777985 1604.9835 748 4289491228
84.047707 1605.1339 749 4289623593
85.183487 1605.1339 749 4289623593
107.77065 1615.9669 821 4294899190
108.88074 1615.8165 820 4294963702
110.14679 1615.8165 820 4294963702
110.92844 1615.3651 817 4294766838
112.18899 1615.3651 817 4294701045
113.2844 1615.2147 816 4294701043
114.20918 1614.9138 814 4294701043
115.29541 1614.7633 813 4294701043
116.37798 1614.6128 812 4294701043
117.62936 1614.6128 812 4294503410
118.88074 1614.6128 812 4294635252
120.13211 1614.6128 812 4294569716
121.02752 1614.3119 810 4294833145
8.0917435 1605.6331 760 4288510550
9.2477064 1605.6331 760 4288250251
10.403669 1605.6331 760 4288645009
12.614679 1604.8899 755 4288186003
13.60734 1603.8495 748 4287727235
14.741284 1603.8495 748 4286674547
15.823853 1603.5522 746 4285225064
16.926605 1603.4037 745 4283975253
18.025688 1603.255 744 4283777604
19.121101 1603.1064 743 4283711811
20.212845 1602.9578 742 4283254083
21.300917 1602.8092 741 4283385412
22.348623 1602.512 739 4283777604
23.466055 1602.512 739 4283843653
24.543119 1602.3633 738 4283451205
25.616514 1602.2147 737 4283385412
26.686239 1602.066 736 4283712063
27.706423 1601.7688 734 4283712063
28.766972 1601.6202 733 4283646270
29.823853 1601.4716 732 4283646270
30.92844 1601.4716 732 4283711811
31.979816 1601.323 731 4283975240
33.082569 1601.323 731 4283777856
34.128441 1601.1743 730 4283712063
35.229359 1601.1743 730 4283711811
36.330276 1601.1743 730 4283448895
37.431194 1601.1743 730 4283907657
38.532108 1601.1743 730 4285026394
39.566971 1601.0256 729 4286936379
40.733944 1601.1743 730 4288120909
41.765137 1601.0256 729 4288647558
42.86422 1601.0256 729 4289239695
43.963303 1601.0256 729 4289306242
45.062386 1601.0256 729 4289898122
46.161469 1601.0256 729 4287198095
47.260551 1601.0256 729 4285816442
48.359634 1601.0256 729 4285816660
49.458717 1601.0256 729 4285290316
50.557796 1601.0256 729 4285420861
51.656879 1601.0256 729 4285815363
52.844036 1601.1743 730 4285881410
53.855045 1601.0256 729 4286012740
54.954128 1601.0256 729 4286143294
56.053211 1601.0256 729 4286340930
57.152294 1601.0256 729 4286996293
58.251377 1601.0256 729 4287851602
59.35046 1601.0256 729 4287259981
60.550457 1601.1743 730 4291010182
61.651375 1601.1743 730 4292724171
62.752293 1601.1743 730 4294967295
63.85321 1601.1743 730 4294967295
64.954132 1601.1743 730 4294967295
66.165138 1601.323 731 4294967039
67.379814 1601.4716 732 4294966783
68.484406 1601.4716 732 4294966268
69.70459 1601.6202 733 4294966782
71.1633 1602.066 736 4294966012
72.513763 1602.3633 738 4294965755
73.629356 1602.3633 738 4294965756
74.867889 1602.512 739 4294967295
76.359634 1602.9578 742 4294965746
77.482567 1602.9578 742 4291541168
78.733948 1603.1064 743 4291664223
80.249542 1603.5522 746 4289493055
81.644035 1603.8495 748 4289754385
82.911926 1603.9982 749 4289688591
84.183487 1604.1467 750 4289096482
85.321098 1604.1467 750 4288767773
108.88074 1614.5504 820 4294831859
109.82752 1614.2532 818 4294831859
110.92844 1614.1046 817 4294569716
112.18899 1614.1046 817 4294438387
113.2844 1613.9559 816 4294569970
114.20918 1613.6587 814 4294635763
115.29541 1613.5101 813 4294701043
116.54862 1613.5101 813 4294766836
117.62936 1613.3615 812 4294503410
118.88074 1613.3615 812 4294437617
120.13211 1613.3615 812 4294372848
121.02752 1613.0642 810 4294569970
8.0917435 1604.4771 760 4286079537
9.2330275 1604.3303 759 4287197027
10.370643 1604.1835 758 4288644474
11.522936 1604.1835 758 4288909449
12.614679 1603.7432 755 4288777863
13.73945 1603.5963 754 4289107346
14.812844 1603.156 751 4287988608
15.875229 1602.7156 748 4288119428
16.954128 1602.422 746 4287461499
18.055046 1602.2753 745 4286278006
19.152294 1602.1284 744 4284106837
20.245872 1601.9817 743 4284039247
21.335779 1601.8348 742 4283841868
22.422018 1601.6881 741 4282923314
23.504587 1601.5413 740 4283318072
24.543119 1601.2477 738 4283385149
25.658716 1601.2477 738 4283385149
26.730276 1601.101 737 4283646270
27.798164 1600.9541 736 4283449147
28.814678 1600.6605 734 4283447601
29.873394 1600.5138 733 4283644723
30.979816 1600.5138 733 4283448121
32.033028 1600.3669 732 4283579963
33.082569 1600.2202 731 4283448627
34.185322 1600.2202 731 4283909178
35.229359 1600.0734 730 4284237894
36.330276 1600.0734 730 4285027410
37.431194 1600.0734 730 4286340458
38.532108 1600.0734 730 4287261560
39.566971 1599.9266 729 4288905083
40.733944 1600.0734 730 4289234048
41.834862 1600.0734 730 4289436058
42.86422 1599.9266 729 4289370009
43.963303 1599.9266 729 4288716165
45.062386 1599.9266 729 4288124285
46.161469 1599.9266 729 4285296489
47.260551 1599.9266 729 4283651921
48.359634 1599.9266 729 4285549877
49.458717 1599.9266 729 4285878841
50.557796 1599.9266 729 4286338877
51.656879 1599.9266 729 4286733635
52.844036 1600.0734 730 4286734148
53.855045 1599.9266 729 4286734148
55.045872 1600.0734 730 4286602817
56.14679 1600.0734 730 4286734402
57.247707 1600.0734 730 4287193156
58.348625 1600.0734 730 4287587658
59.449543 1600.0734 730 4286995780
60.651375 1600.2202 731 4291864206
61.651375 1600.0734 730 4293053385
62.85688 1600.2202 731 4294967295
63.959633 1600.2202 731 4294967295
65.062386 1600.2202 731 4294967295
66.165138 1600.2202 731 4294966782
67.491745 1600.5138 733 4294966782
68.711929 1600.6605 734 4294966012
70.051376 1600.9541 736 4294966012
71.280731 1601.101 737 4294964729
72.513763 1601.2477 738 4294965757
73.750458 1601.3945 739 4294966783
75.113762 1601.6881 741 4294967039
76.359634 1601.8348 742 4294963164
77.482567 1601.8348 742 4289500032
78.733948 1601.9817 743 4291396159
80.510094 1602.7156 748 4290146092
81.644035 1602.7156 748 4289819928
82.911926 1602.8624 749 4289556755
84.047707 1602.8624 749 4288898841
85.183487 1602.8624 749 4288438290
86.877068 1603.4496 753 4287388430
87.878899 1603.3027 752 4286006784
108.56514 1612.9908 818 4294898422
109.82752 1612.9908 818 4294766836
111.0899 1612.9908 818 4294635763
112.18899 1612.844 817 4294438641
113.44954 1612.844 817 4294569970
114.54312 1612.6973 816 4294372848
115.46422 1612.4037 814 4294633967
116.54862 1612.2568 813 4294831346
117.62936 1612.1101 812 4294503410
118.88074 1612.1101 812 4294437617
6.93578 1603.321 760 4285683486
8.0917435 1603.321 760 4285354521
9.2330275 1603.1761 759 4285222183
10.370643 1603.0312 758 4285156390
11.522936 1603.0312 758 4285748275
12.655046 1602.8862 757 4286603584
13.761468 1602.5963 755 4286803805
14.860551 1602.3064 753 4287790956
15.952293 1602.0165 751 4288119424
17.036697 1601.7266 749 4289172368
18.14312 1601.5817 748 4288976539
19.21468 1601.2917 746 4289700005
20.311926 1601.1467 745 4289237671
21.370642 1600.8569 743 4288777120
22.458715 1600.7119 742 4288513406
23.504587 1600.422 740 4288316026
24.583487 1600.2771 739 4288448128
25.700918 1600.2771 739 4288645507
26.774311 1600.1321 738 4288710530
27.889908 1600.1321 738 4288579201
28.957798 1599.9872 737 4288579201
29.922935 1599.5522 734 4288579201
31.031193 1599.5522 734 4288776066
32.086239 1599.4073 733 4288776066
33.137615 1599.2623 732 4288776579
34.242203 1599.2623 732 4288908165
35.288074 1599.1174 731 4289040526
36.390827 1599.1174 731 4289698713
37.49358 1599.1174 731 4289368730
38.596329 1599.1174 731 4289434523
39.633026 1598.9725 730 4287985810
40.733944 1598.9725 730 4287196294
41.834862 1598.9725 730 4286472818
42.93578 1598.9725 730 4285551716
44.036697 1598.9725 730 4285158716
45.137615 1598.9725 730 4284698165
46.161469 1598.8275 729 4285091378
47.260551 1598.8275 729 4285354294
48.359634 1598.8275 729 4285943855
49.458717 1598.8275 729 4286009648
50.557796 1598.8275 729 4286468916
51.656879 1598.8275 729 4287192639
52.844036 1598.9725 730 4286864444
53.944954 1598.9725 730 4286864444
55.045872 1598.9725 730 4286602821
56.14679 1598.9725 730 4287194701
57.343121 1599.1174 731 4287259983
58.348625 1598.9725 730 4286996555
59.449543 1598.9725 730 4287128134
60.550457 1598.9725 730 4292325781
61.754128 1599.1174 731 4293185226
62.961468 1599.2623 732 4294967291
64.066055 1599.2623 732 4294967295
65.170639 1599.2623 732 4294967293
66.27523 1599.2623 732 4294967037
67.491745 1599.4073 733 4294967295
68.598167 1599.4073 733 4294966012
70.166969 1599.9872 737 4294966269
71.398163 1600.1321 738 4294966527
72.633026 1600.2771 739 4294967295
73.750458 1600.2771 739 4294967039
75.236694 1600.7119 742 4293909726
76.359634 1600.7119 742 4293969795
77.609177 1600.8569 743 4289166906
79.119263 1601.2917 746 4289556522
80.770645 1601.8716 750 4289753644
81.776146 1601.7266 749 4289227802
83.045868 1601.8716 750 4289096473
84.047707 1601.7266 749 4288768032
85.183487 1601.7266 749 4287781137
87.737617 1602.0165 751 4287389221
107.77065 1612.1633 821 4294635252
109.03853 1612.1633 821 4294898422
110.14679 1612.0183 820 4294898422
111.41284 1612.0183 820 4294701556
112.35229 1611.7284 818 4294767350
113.44954 1611.5835 817 4294569970
114.54312 1611.4385 816 4294241005
115.46422 1611.1487 814 4294502899
116.54862 1611.0037 813 4294765814
117.62936 1610.8588 812 4294241007
118.88074 1610.8588 812 4294109421
6.93578 1602.1652 760 4286338084
8.0917435 1602.1652 760 4286206498
9.2330275 1602.022 759 4285419044
10.370643 1601.8789 758 4285090080
11.522936 1601.8789 758 4284827677
12.614679 1601.4496 755 4285024800
13.761468 1601.4496 755 4285550894
14.884403 1601.3064 754 4286011445
16.00367 1601.1633 753 4286540119
17.091743 1600.8771 751 4287527014
18.14312 1600.4478 748 4287266684
19.277063 1600.4478 748 4288582544
20.344954 1600.1615 746 4289566107
21.370642 1599.7321 743 4289566107
22.458715 1599.589 742 4290813594
23.543119 1599.4459 741 4290155920
24.623854 1599.3027 740 4289763474
25.700918 1599.1597 739 4289237130
26.818348 1599.1597 739 4289695369
27.889908 1599.0165 738 4289563783
28.957798 1598.8734 737 4289892492
29.922935 1598.4441 734 4289629576
31.133945 1598.7302 736 4290220943
32.086239 1598.3009 733 4290352529
33.192661 1598.3009 733 4290551962
34.299084 1598.3009 733 4289499273
35.34679 1598.1578 732 4289368968
36.451378 1598.1578 732 4289171333
37.49358 1598.0146 731 4287922050
38.660549 1598.1578 732 4287724670
39.699081 1598.0146 731 4286408295
40.801834 1598.0146 731 4285355607
41.904587 1598.0146 731 4285551435
42.93578 1597.8716 730 4285288519
44.036697 1597.8716 730 4285681967
45.137615 1597.8716 730 4285616174
46.238533 1597.8716 730 4286139953
47.339451 1597.8716 730 4286271539
48.440369 1597.8716 730 4286468151
49.458717 1597.7284 729 4286402357
50.557796 1597.7284 729 4286402848
51.743118 1597.8716 730 4286731557
52.93211 1598.0146 731 4286534961
54.034863 1598.0146 731 4287061305
55.137615 1598.0146 731 4286406721
56.240368 1598.0146 731 4287262030
57.438534 1598.1578 732 4287130960
58.543118 1598.1578 732 4286473029
59.746788 1598.3009 733 4287326026
60.85321 1598.3009 733 4292984224
61.959633 1598.3009 733 4293777113
63.066055 1598.3009 733 4294967295
64.172478 1598.3009 733 4294967295
65.2789 1598.3009 733 4294967293
66.495415 1598.4441 734 4294967294
67.603668 1598.4441 734 4294967295
68.711929 1598.4441 734 4294966012
70.28257 1599.0165 738 4294966269
71.515594 1599.1597 739 4294966783
72.752296 1599.3027 740 4294967295
73.871559 1599.3027 740 4294964723
75.236694 1599.589 742 4292395712
76.484406 1599.7321 743 4291927909
77.735779 1599.8752 744 4289361982
79.504585 1600.5908 749 4289493279
80.770645 1600.7339 750 4288966679
81.908257 1600.7339 750 4288767744
83.045868 1600.7339 750 4289096706
84.183487 1600.7339 750 4288636712
85.183487 1600.5908 749 4287255059
86.598167 1600.8771 751 4286139397
87.596329 1600.7339 750 4288836910
107.61468 1610.7523 820 4294635763
110.14679 1610.7523 820 4294963702
111.41284 1610.7523 820 4294701043
112.35229 1610.4661 818 4294635250
113.44954 1610.323 817 4294569968
114.54312 1610.1798 816 4294372846
115.80183 1610.1798 816 4294569970
116.71927 1609.8936 814 4294438641
117.80183 1609.7505 813 4294306799
8.0917435 1601.0092 760 4286206248
9.2330275 1600.8679 759 4286010398
10.370643 1600.7266 758 4285747483
11.522936 1600.7266 758 4285616426
12.614679 1600.3027 755 4285221668
13.761468 1600.3027 755 4285221400
14.884403 1600.1615 754 4284958228
16.00367 1600.0201 753 4284828186
17.119267 1599.8789 752 4285025822
18.231194 1599.7377 751 4284960808
19.308256 1599.4551 749 4285092137
20.411009 1599.3137 748 4285682241
21.440367 1598.8899 745 4286142792
22.495413 1598.6073 743 4286338638
23.581652 1598.4661 742 4286272845
24.664221 1598.3247 741 4286603095
25.74312 1598.1835 740 4286932061
26.862385 1598.1835 740 4286931291
27.93578 1598.0422 739 4286799962
29.005505 1597.9009 738 4286800475
30.121101 1597.9009 738 4286866268
31.185322 1597.7596 737 4286931291
32.13945 1597.3358 734 4286734169
33.247707 1597.3358 734 4286733648
34.355965 1597.3358 734 4286338890
35.405506 1597.1945 733 4285748023
36.511925 1597.1945 733 4285353266
37.618347 1597.1945 733 4285287988
38.72477 1597.1945 733 4285353781
39.831192 1597.1945 733 4285550381
40.937614 1597.1945 733 4285681967
41.974312 1597.0532 732 4285682219
43.007339 1596.9119 731 4286011184
44.110092 1596.9119 731 4286468916
45.212845 1596.9119 731 4286074158
46.238533 1596.7706 730 4286270004
47.41835 1596.9119 731 4286401590
48.440369 1596.7706 730 4286534446
49.541283 1596.7706 730 4286534446
50.6422 1596.7706 730 4286402344
51.915596 1597.0532 732 4286599466
53.020184 1597.0532 732 4286535481
54.124771 1597.0532 732 4287193154
55.321102 1597.1945 733 4286407236
56.427525 1597.1945 733 4287328338
57.533943 1597.1945 733 4287328336
58.640366 1597.1945 733 4287065421
59.845871 1597.3358 734 4287194175
60.954128 1597.3358 734 4293905060
62.062386 1597.3358 734 4294368998
63.379818 1597.6184 736 4294967295
64.2789 1597.3358 734 4294967295
65.603668 1597.6184 736 4294967036
66.715599 1597.6184 736 4294967037
67.827522 1597.6184 736 4294967295
68.939453 1597.6184 736 4294966781
70.398163 1598.0422 739 4294967295
71.633026 1598.1835 740 4294967295
72.990829 1598.4661 742 4294041312
74.113762 1598.4661 742 4293704098
75.359634 1598.6073 743 4290151275
76.733948 1598.8899 745 4290610238
78.242203 1599.3137 748 4289886516
79.633026 1599.5963 750 4289361185
80.900917 1599.7377 751 4288834841
82.040367 1599.7377 751 4288440837
83.179817 1599.7377 751 4288638472
84.319267 1599.7377 751 4287718695
85.458717 1599.7377 751 4286073613
86.598167 1599.7377 751 4285745667
87.596329 1599.5963 750 4292522347
88.590828 1599.4551 749 4292329443
89.726608 1599.4551 749 4294966015
90.715599 1599.3137 748 4294966782
112.35229 1609.2036 818 4294306287
113.61468 1609.2036 818 4294240744
114.71009 1609.0624 817 4294306537
115.80183 1608.9211 816 4294503916
117.06055 1608.9211 816 4294503916
117.97431 1608.6385 814 4294241259
119.22935 1608.6385 814 4294307053
10.354129 1599.4348 757 4286206237
11.504587 1599.4348 757 4286139940
12.614679 1599.156 755 4286074147
13.761468 1599.156 755 4285615390
14.908257 1599.156 755 4285483804
16.029358 1599.0165 754 4285222433
17.14679 1598.8771 753 4285485349
18.26055 1598.7377 752 4285616939
19.339449 1598.4587 750 4285551146
20.411009 1598.1798 748 4285157168
21.475229 1597.9009 746 4285157168
22.568808 1597.7615 745 4285158201
23.620184 1597.4825 743 4285092408
24.704588 1597.3431 742 4285485369
25.78532 1597.2036 741 4285221940
26.906422 1597.2036 741 4285221418
27.981651 1597.0642 740 4285352747
29.053211 1596.9248 739 4285681465
30.121101 1596.7853 738 4285352499
31.236698 1596.7853 738 4285090093
32.299084 1596.6459 737 4285090093
33.412846 1596.6459 737 4285484849
34.469727 1596.5065 736 4285155884
35.464222 1596.2275 734 4285090345
36.572475 1596.2275 734 4285090345
37.680733 1596.2275 734 4285418542
38.78899 1596.2275 734 4285615922
39.897247 1596.2275 734 4286205483
41.005505 1596.2275 734 4286402605
42.044037 1596.0881 733 4286271791
43.150459 1596.0881 733 4286271791
44.183487 1595.9486 732 4286271791
45.288074 1595.9486 732 4286074156
46.315598 1595.8092 731 4286270506
47.49725 1595.9486 732 4286731057
48.521099 1595.8092 731 4286666034
49.623852 1595.8092 731 4286666034
50.726604 1595.8092 731 4286336814
52.001835 1596.0881 733 4286599987
53.108257 1596.0881 733 4286666810
54.21468 1596.0881 733 4286798397
55.321102 1596.0881 733 4286209088
56.427525 1596.0881 733 4286933067
57.629356 1596.2275 734 4287130710
58.737614 1596.2275 734 4286933330
59.845871 1596.2275 734 4287258166
61.155964 1596.5065 736 4294561446
62.267891 1596.5065 736 4294698728
63.379818 1596.5065 736 4294967295
64.491745 1596.5065 736 4294966524
65.603668 1596.5065 736 4294965753
66.825691 1596.6459 737 4294965241
68.051376 1596.7853 738 4294967039
69.166969 1596.7853 738 4294967294
70.629356 1597.2036 741 4294967294
71.867889 1597.3431 742 4294966774
73.110092 1597.4825 743 4292724673
74.234863 1597.4825 743 4292583790
75.359634 1597.4825 743 4290478414
77.108253 1598.1798 748 4290872393
78.495415 1598.4587 750 4289753912
79.889908 1598.7377 752 4289097234
81.161469 1598.8771 753 4288965647
82.304588 1598.8771 753 4287917854
83.447708 1598.8771 753 4287720475
84.590828 1598.8771 753 4286602010
85.321098 1598.4587 750 4285680908
86.458717 1598.4587 750 4285681967
87.596329 1598.4587 750 4294498229
88.590828 1598.3192 749 4293846513
89.726608 1598.3192 749 4294966015
90.715599 1598.1798 748 4294965757
112.35229 1607.9413 818 4294306287
113.61468 1607.9413 818 4294175212
114.71009 1607.8019 817 4294241005
115.80183 1607.6624 816 4294239724
117.06055 1607.6624 816 4294239724
117.97431 1607.3835 814 4293976553
10.321101 1598.0092 755 4286337053
11.46789 1598.0092 755 4286270745
12.614679 1598.0092 755 4286270745
13.761468 1598.0092 755 4286074147
14.908257 1598.0092 755 4285218838
16.029358 1597.8716 754 4285155625
17.174313 1597.8716 754 4285681969
18.26055 1597.5963 752 4285616426
19.370642 1597.4587 751 4285352997
20.477064 1597.321 750 4285286943
21.544954 1597.0459 748 4285221150
22.605505 1596.7706 746 4285155354
23.697248 1596.6331 745 4285024025
24.744955 1596.3578 743 4285155845
25.827522 1596.2202 742 4285287431
26.950459 1596.2202 742 4285155845
28.027523 1596.0825 741 4285418761
29.100918 1595.9449 740 4285155604
30.170643 1595.8074 739 4284958482
31.288073 1595.8074 739 4285024023
32.405506 1595.8074 739 4285287195
33.522934 1595.8074 739 4285221670
34.526604 1595.5321 737 4285550379
35.58165 1595.3945 736 4285550381
36.693577 1595.3945 736 4285484588
37.805504 1595.3945 736 4285812522
38.78899 1595.1193 734 4285943851
39.897247 1595.1193 734 4286139690
41.005505 1595.1193 734 4286205483
42.113762 1595.1193 734 4285942056
43.150459 1594.9817 733 4285942056
44.256882 1594.9817 733 4286204461
45.363304 1594.9817 733 4286402096
46.469727 1594.9817 733 4286336562
47.576145 1594.9817 733 4286928699
48.601833 1594.844 732 4286666034
49.78899 1594.9817 733 4286797363
50.895412 1594.9817 733 4286665795
52.088074 1595.1193 734 4286665795
53.196331 1595.1193 734 4286339129
54.304588 1595.1193 734 4286339129
55.412846 1595.1193 734 4286405186
56.708256 1595.3945 736 4287392081
57.820183 1595.3945 736 4287654752
58.93211 1595.3945 736 4287325788
60.044037 1595.3945 736 4287456077
61.256882 1595.5321 737 4294627513
62.370644 1595.5321 737 4294964201
63.484406 1595.5321 737 4294967290
64.598167 1595.5321 737 4294967295
65.711929 1595.5321 737 4294967295
66.935783 1595.6697 738 4294967295
68.1633 1595.8074 739 4294967295
69.394493 1595.9449 740 4294966774
70.744957 1596.2202 742 4293909717
71.985321 1596.3578 743 4293967258
73.229355 1596.4954 744 4290546021
74.477066 1596.6331 745 4290411801
75.482567 1596.4954 744 4290477594
77.233025 1597.1835 749 4289820984
78.748627 1597.5963 752 4288965675
80.018349 1597.7339 753 4288835090
81.29174 1597.8716 754 4288045831
82.436699 1597.8716 754 4287652381
83.58165 1597.8716 754 4287323416
85.321098 1597.321 750 4287785501
86.458717 1597.321 750 4287917727
87.596329 1597.321 750 4294962687
88.590828 1597.1835 749 4294966783
89.726608 1597.1835 749 4294964988
113.44954 1606.5413 817 4294109421
114.71009 1606.5413 817 4294372594
115.80183 1606.4037 816 4294108402
117.06055 1606.4037 816 4293845487
11.46789 1596.8624 755 4286532882
12.614679 1596.8624 755 4286598676
13.761468 1596.8624 755 4286139169
14.908257 1596.8624 755 4285678618
16.055046 1596.8624 755 4285417759
17.174313 1596.7266 754 4285681187
18.289907 1596.5908 753 4285746979
19.401834 1596.4551 752 4285615392
20.477064 1596.1835 750 4285942560
21.579817 1596.0477 749 4285745182
22.715597 1596.0477 749 4285810957
23.735781 1595.6404 746 4285877006
24.825687 1595.5046 745 4285942795
25.911926 1595.3688 744 4285942795
26.994495 1595.233 743 4285613314
28.119267 1595.233 743 4285744900
29.196331 1595.0973 742 4285942545
30.220184 1594.8257 740 4285810959
31.339449 1594.8257 740 4285876765
32.405506 1594.6899 739 4286008351
33.522934 1594.6899 739 4286008353
34.640366 1594.6899 739 4286139940
35.699081 1594.5541 738 4286139690
36.814678 1594.5541 738 4286139690
37.867889 1594.4183 737 4286270506
38.917431 1594.2826 736 4286402092
40.029358 1594.2826 736 4286270758
41.141285 1594.2826 736 4286204965
42.113762 1594.011 734 4286138404
43.222019 1594.011 734 4286204197
44.330276 1594.011 734 4286204449
45.438534 1594.011 734 4286533414
46.546787 1594.011 734 4286600241
47.655045 1594.011 734 4286929205
48.763302 1594.011 734 4286797363
49.871559 1594.011 734 4286797363
50.979816 1594.011 734 4286535229
52.260551 1594.2826 736 4286469436
53.196331 1594.011 734 4286339383
54.484406 1594.2826 736 4286273334
55.596329 1594.2826 736 4286996032
56.801834 1594.4183 737 4288180050
57.915596 1594.4183 737 4288114525
59.029358 1594.4183 737 4287456594
60.14312 1594.4183 737 4287522635
61.256882 1594.4183 737 4294825658
62.473396 1594.5541 738 4294964723
63.588989 1594.5541 738 4294967295
64.70459 1594.5541 738 4294967295
65.820183 1594.5541 738 4294967295
67.045868 1594.6899 739 4294967295
68.27523 1594.8257 740 4294967294
69.622017 1595.0973 742 4294963163
70.86055 1595.233 743 4292461487
72.102753 1595.3688 744 4292519019
73.348625 1595.5046 745 4289821506
74.477066 1595.5046 745 4290543650
75.728439 1595.6404 746 4289688341
77.482567 1596.3192 751 4288966179
78.875229 1596.5908 753 4288834593
80.018349 1596.5908 753 4288639524
81.42202 1596.8624 755 4287192078
82.56881 1596.8624 755 4287453442
86.458717 1596.1835 750 4291736761
87.596329 1596.1835 750 4294966783
114.54312 1605.1449 816 4294241005
115.46422 1604.8734 814 4293845739
12.614679 1595.7156 755 4286139410
13.761468 1595.7156 755 4285942560
14.908257 1595.7156 755 4285745182
16.055046 1595.7156 755 4285286943
17.201836 1595.7156 755 4285484322
18.319265 1595.5817 754 4285615905
19.433027 1595.4478 753 4285681699
20.510092 1595.1798 751 4286074649
21.649542 1595.1798 751 4285942806
22.6789 1594.778 748 4286139156
23.735781 1594.5101 746 4286073363
24.825687 1594.3761 745 4285942795
25.954128 1594.3761 745 4286008844
27.038532 1594.2422 744 4285418249
28.119267 1594.1083 743 4285286663
29.244038 1594.1083 743 4285615633
30.269724 1593.8403 741 4285615633
31.390825 1593.8403 741 4286008340
32.458717 1593.7064 740 4286732063
33.57798 1593.7064 740 4286206237
34.697247 1593.7064 740 4286074395
35.757797 1593.5725 739 4286139940
36.875229 1593.5725 739 4286139940
37.930275 1593.4385 738 4286139942
39.045872 1593.4385 738 4286073893
40.095413 1593.3046 737 4286008340
41.209175 1593.3046 737 4286008340
42.253212 1593.1707 736 4285942308
43.222019 1592.9027 734 4286534446
44.477066 1593.1707 736 4286402859
45.588989 1593.1707 736 4286534446
46.700916 1593.1707 736 4286469414
47.655045 1592.9027 734 4286601256
48.763302 1592.9027 734 4286601002
50.036697 1593.1707 736 4286667051
51.148624 1593.1707 736 4286797113
52.34679 1593.3046 737 4286928699
53.372478 1593.1707 736 4286798399
54.57431 1593.3046 737 4287587658
55.688072 1593.3046 737 4287457092
56.801834 1593.3046 737 4288246608
57.915596 1593.3046 737 4288180831
59.029358 1593.3046 737 4287786073
60.242203 1593.4385 738 4287917645
61.3578 1593.4385 738 4294959038
62.576145 1593.5725 739 4294967295
63.693577 1593.5725 739 4294967295
64.811012 1593.5725 739 4294967291
66.036697 1593.7064 740 4294966774
67.266052 1593.8403 741 4294962145
68.499084 1593.9744 742 4293840837
69.735779 1594.1083 743 4293638012
70.976151 1594.2422 744 4290940755
72.337616 1594.5101 746 4291069996
73.467888 1594.5101 746 4290543396
74.84037 1594.778 748 4289886249
76.097244 1594.9119 749 4289294369
77.607338 1595.3137 752 4288770603
78.875229 1595.4478 753 4288112417
80.018349 1595.4478 753 4287783969
81.682571 1595.9835 757 4286402316
82.833031 1595.9835 757 4286467328
12.655046 1594.833 757 4285877006
13.805505 1594.833 757 4285418792
14.955963 1594.833 757 4285089828
16.055046 1594.5688 755 4285024788
17.201836 1594.5688 755 4285222168
18.348623 1594.5688 755 4285352736
19.46422 1594.4366 754 4285484322
20.543119 1594.1725 752 4286535731
21.684404 1594.1725 752 4285877545
22.752293 1593.9082 750 4286073361
23.812843 1593.644 748 4285941775
24.866055 1593.3798 746 4285745417
25.954128 1593.2477 745 4285745417
27.082569 1593.2477 745 4285549838
28.165138 1593.1156 744 4285484045
29.244038 1592.9835 743 4285287693
30.319265 1592.8513 742 4285419535
31.442202 1592.8513 742 4285878297
32.458717 1592.5872 740 4286207261
33.633026 1592.7192 741 4286075945
34.697247 1592.5872 740 4285944103
35.757797 1592.4551 739 4286139942
36.875229 1592.4551 739 4286139942
37.992661 1592.4551 739 4286205735
39.110092 1592.4551 739 4286008099
40.161469 1592.323 738 4285942545
41.277065 1592.323 738 4285876752
42.322937 1592.1908 737 4285417759
43.436699 1592.1908 737 4286141738
44.550457 1592.1908 737 4286272043
45.664219 1592.1908 737 4286600752
46.777981 1592.1908 737 4286273586
47.812843 1592.0587 736 4286273586
48.92477 1592.0587 736 4286535477
50.119267 1592.1908 737 4286535477
51.317432 1592.323 738 4286666297
52.433029 1592.323 738 4286666297
53.548622 1592.323 738 4287257412
54.664219 1592.323 738 4287717963
55.779816 1592.323 738 4287653696
56.895412 1592.323 738 4288442956
58.011009 1592.323 738 4288246624
59.126606 1592.323 738 4287786073
60.341286 1592.4551 739 4288509012
61.458717 1592.4551 739 4294959297
62.678898 1592.5872 740 4294967288
63.798164 1592.5872 740 4294967028
64.917435 1592.5872 740 4294966254
66.144951 1592.7192 741 4294964711
67.376144 1592.8513 742 4294959554
68.611008 1592.9835 743 4293506968
69.849541 1593.1156 744 4293699682
71.091743 1593.2477 745 4291133498
72.337616 1593.3798 746 4291332138
73.706421 1593.644 748 4290805793
74.84037 1593.644 748 4289492514
76.343117 1594.0404 751 4289163292
77.732109 1594.3046 753 4288704554
79.001831 1594.4366 754 4287783452
80.14679 1594.4366 754 4287193354
81.29174 1594.4366 754 4286140416
111.69908 1602.3633 814 4294305517
112.95413 1602.3633 814 4293977320
12.937614 1595.5065 771 4285942027
13.805505 1593.6826 757 4285483050
14.955963 1593.6826 757 4285417257
16.106422 1593.6826 757 4285156104
17.25688 1593.6826 757 4285287947
18.348623 1593.422 755 4285417759
19.46422 1593.2917 754 4285417759
20.576147 1593.1615 753 4285745436
21.684404 1593.0312 752 4285745436
22.78899 1592.9009 751 4285678868
23.851376 1592.6404 749 4285744662
24.946789 1592.5101 748 4285678868
25.99633 1592.2495 746 4285810455
27.126606 1592.2495 746 4285418009
28.21101 1592.1193 745 4285483802
29.291742 1591.989 744 4285746962
30.368807 1591.8588 743 4285746962
31.493578 1591.8588 743 4286008855
32.565136 1591.7284 742 4286140442
33.688072 1591.7284 742 4286206248
34.697247 1591.4679 740 4286140455
35.816513 1591.4679 740 4286271260
36.93578 1591.4679 740 4286205467
37.992661 1591.3376 739 4286270745
39.110092 1591.3376 739 4286139158
40.227524 1591.3376 739 4285877256
41.344955 1591.3376 739 4285943049
42.392662 1591.2073 738 4286073897
43.579815 1591.3376 739 4286534448
44.623852 1591.2073 738 4286534446
45.739449 1591.2073 738 4286797617
46.855045 1591.2073 738 4286601256
47.970642 1591.2073 738 4286601256
49.086239 1591.2073 738 4286535731
50.201836 1591.2073 738 4286535731
51.401836 1591.3376 739 4286599989
52.519264 1591.3376 739 4286468402
53.636696 1591.3376 739 4286600252
54.754128 1591.3376 739 4287060803
55.871559 1591.3376 739 4287325497
57.082569 1591.4679 740 4288509514
58.201836 1591.4679 740 4288180831
59.321102 1591.4679 740 4288115038
60.440369 1591.4679 740 4289034845
61.559631 1591.4679 740 4294959813
62.781651 1591.5981 741 4294965714
63.902752 1591.5981 741 4294964687
65.130272 1591.7284 742 4294964429
66.253212 1591.7284 742 4294960316
67.486237 1591.8588 743 4294953609
68.834862 1592.1193 745 4292517983
69.963303 1592.1193 745 4292187976
71.207336 1592.2495 746 4290214186
72.337616 1592.2495 746 4290279710
73.706421 1592.5101 748 4290477090
74.84037 1592.5101 748 4289492514
76.343117 1592.9009 751 4288702741
77.732109 1593.1615 753 4288504095
79.001831 1593.2917 754 4287319821
8.2458715 1594.4587 772 4286599455
9.4238529 1594.4587 772 4286599194
10.601835 1594.4587 772 4286993952
11.761468 1594.3303 771 4286797091
12.937614 1594.3303 771 4286007318
14.113762 1594.3303 771 4286072609
14.955963 1592.5321 757 4286072609
16.106422 1592.5321 757 4285549838
17.25688 1592.5321 757 4285615631
18.407339 1592.5321 757 4285549597
19.495413 1592.2753 755 4285418011
20.609175 1592.1467 754 4285418009
21.719267 1592.0183 753 4285286680
22.825687 1591.8899 752 4285418249
23.889908 1591.6331 750 4285352456
24.987156 1591.5046 749 4285418009
26.080734 1591.3761 748 4285418009
27.21468 1591.3761 748 4285810957
28.25688 1591.1193 746 4286008592
29.387156 1591.1193 746 4285746964
30.418348 1590.8624 744 4285746964
31.544954 1590.8624 744 4286008853
32.671558 1590.8624 744 4286074646
33.688072 1590.6055 742 4286271260
34.811008 1590.6055 742 4286337053
35.875229 1590.4771 741 4286337303
36.99633 1590.4771 741 4286205716
38.055046 1590.3486 740 4286205467
39.174313 1590.3486 740 4286008088
40.293579 1590.3486 740 4286139156
41.412846 1590.3486 740 4286533914
42.532108 1590.3486 740 4286665766
43.651375 1590.3486 740 4286863145
44.770641 1590.3486 740 4286796852
45.814678 1590.2202 739 4286862645
46.93211 1590.2202 739 4286666538
48.049541 1590.2202 739 4286666538
49.166973 1590.2202 739 4286797867
50.284405 1590.2202 739 4286797867
51.48624 1590.3486 740 4286861862
52.605503 1590.3486 740 4286927655
53.72477 1590.3486 740 4286665252
54.844036 1590.3486 740 4287257390
55.963303 1590.3486 740 4287193654
57.082569 1590.3486 740 4288378185
58.297249 1590.4771 741 4288180833
59.41835 1590.4771 741 4288180833
60.539448 1590.4771 741 4289691226
61.761467 1590.6055 742 4294960577
62.884403 1590.6055 742 4294962634
64.007339 1590.6055 742 4294964176
65.236694 1590.7339 743 4294964931
66.469727 1590.8624 744 4293577881
67.706421 1590.9908 745 4294160998
68.834862 1590.9908 745 4291924036
70.077065 1591.1193 746 4291726893
71.43853 1591.3761 748 4290411034
72.572479 1591.3761 748 4290018076
73.706421 1591.3761 748 4289754648
74.84037 1591.3761 748 4289228333
76.588989 1592.0183 753 4288701989
77.981651 1592.2753 755 4288174867
80.27523 1592.2753 755 4286073600
7.1119266 1593.7871 776 4286468900
8.2587156 1593.4073 773 4286468900
9.4385319 1593.4073 773 4286468121
10.601835 1593.2808 772 4286533914
11.761468 1593.1542 771 4286730516
12.937614 1593.1542 771 4285941000
14.113762 1593.1542 771 4285809694
14.955963 1591.3816 757 4286072609
16.106422 1591.3816 757 4285745436
17.284403 1591.5083 758 4285876765
18.407339 1591.3816 757 4285876765
19.557798 1591.3816 757 4285942558
20.642202 1591.1284 755 4285549597
21.754128 1591.0018 754 4285615390
22.862385 1590.8752 753 4285942547
23.966972 1590.7487 752 4285876754
25.027523 1590.4954 750 4285876752
26.122936 1590.3688 749 4285810959
27.21468 1590.2422 748 4285745667
28.25688 1589.989 746 4285811461
29.387156 1589.989 746 4285876752
30.418348 1589.7358 744 4285942545
31.596331 1589.8624 745 4286074898
32.72477 1589.8624 745 4286074898
33.743118 1589.6091 743 4286140444
34.867889 1589.6091 743 4286140444
35.992661 1589.6091 743 4286139912
37.056881 1589.4825 742 4286337292
38.117432 1589.356 741 4286205467
39.302753 1589.4825 742 4286205467
40.359634 1589.356 741 4286337053
41.480736 1589.356 741 4287126568
42.601833 1589.356 741 4286534946
43.722935 1589.356 741 4286600995
44.844036 1589.356 741 4286665784
45.965137 1589.356 741 4286665784
47.086239 1589.356 741 4286535463
48.20734 1589.356 741 4286469414
49.328442 1589.356 741 4286797867
50.449543 1589.356 741 4286929453
51.570641 1589.356 741 4286995249
52.691742 1589.356 741 4287587386
53.900917 1589.4825 742 4287325497
54.933945 1589.356 741 4287457083
56.055046 1589.356 741 4287260481
57.176147 1589.356 741 4288313425
58.392662 1589.4825 742 4288379243
59.515594 1589.4825 742 4288445036
60.638531 1589.4825 742 4290807379
61.862385 1589.6091 743 4294964931
62.987156 1589.6091 743 4294966996
64.216515 1589.7358 744 4294965454
65.343117 1589.7358 744 4294963082
66.57798 1589.8624 745 4292063050
67.816513 1589.989 746 4292846924
68.946793 1589.989 746 4291860028
70.304588 1590.2422 748 4291662634
71.554131 1590.3688 749 4290149394
72.689911 1590.3688 749 4289427484
73.825691 1590.3688 749 4287913989
75.082565 1590.4954 750 4287584806
76.711929 1591.0018 754 4287321633
78.231194 1591.3816 757 4286861060
79.381653 1591.3816 757 4286202880
7.1119266 1592.6018 776 4286600995
8.2972479 1592.6018 776 4286337566
9.4385319 1592.2275 773 4286468121
10.601835 1592.1028 772 4286665500
11.761468 1591.978 771 4286665504
12.937614 1591.978 771 4285810196
14.091743 1591.8533 770 4286137119
15.170642 1591.3541 766 4286203168
16.286238 1591.1046 764 4286007568
17.311926 1590.4807 759 4286270996
18.436697 1590.356 758 4286074147
19.557798 1590.2312 757 4286008353
20.708258 1590.2312 757 4285679391
21.78899 1589.9817 755 4285942306
22.899082 1589.8569 754 4286204951
24.005505 1589.7321 753 4286204951
25.108257 1589.6073 752 4286204951
26.165138 1589.3578 750 4286073365
27.258715 1589.233 749 4285810957
28.348623 1589.1083 748 4285810957
29.482569 1589.1083 748 4285745417
30.517431 1588.8588 746 4286008590
31.647707 1588.8588 746 4286009103
32.777981 1588.8588 746 4286140946
33.908257 1588.8588 746 4286206248
34.867889 1588.4844 743 4286008613
36.051376 1588.6091 744 4285613316
37.056881 1588.3596 742 4286468369
38.179817 1588.3596 742 4286337568
39.366974 1588.4844 743 4286205983
40.42569 1588.3596 742 4286337818
41.548622 1588.3596 742 4286600991
42.671558 1588.3596 742 4286272545
43.794495 1588.3596 742 4286272545
44.917431 1588.3596 742 4286600241
46.040367 1588.3596 742 4286468654
47.163303 1588.3596 742 4286666788
48.28624 1588.3596 742 4286863910
49.409176 1588.3596 742 4286863660
50.532108 1588.3596 742 4286929453
51.655045 1588.3596 742 4286864433
52.777981 1588.3596 742 4287456313
53.988991 1588.4844 743 4287194425
55.023853 1588.3596 742 4287786561
56.14679 1588.3596 742 4287130680
57.363304 1588.4844 743 4287985989
58.488075 1588.4844 743 4288313446
59.612843 1588.4844 743 4288050530
60.737614 1588.4844 743 4291856735
61.862385 1588.4844 743 4294964939
63.089909 1588.6091 744 4294967270
64.216515 1588.6091 744 4294966492
65.449539 1588.7339 745 4294955916
66.57798 1588.7339 745 4292321883
67.816513 1588.8588 746 4292649042
69.170639 1589.1083 748 4292385871
70.304588 1589.1083 748 4291203141
71.554131 1589.233 749 4289821488
72.807343 1589.3578 750 4288771116
73.825691 1589.233 749 4287060499
75.324768 1589.6073 752 4287059215
77.607338 1589.6073 752 4286073344
8.2972479 1591.4165 776 4286403107
9.4532108 1591.1707 774 4286534950
10.618349 1591.0477 773 4286666536
11.779817 1590.9248 772 4286600222
12.937614 1590.8019 771 4285744914
14.091743 1590.679 770 4286137119
15.194495 1590.3101 767 4286203168
16.311926 1590.0642 765 4286007568
17.394495 1589.6954 762 4286533912
18.495413 1589.4496 760 4286205455
19.620184 1589.3267 759 4286073613
20.741285 1589.2036 758 4285876765
21.858715 1589.0807 757 4285876765
22.93578 1588.8348 755 4286007068
24.082569 1588.8348 755 4285809946
25.108257 1588.4661 752 4285745436
26.20734 1588.3431 751 4285876765
27.302752 1588.2202 750 4285745436
28.394495 1588.0973 749 4285942558
29.530275 1588.0973 749 4285942558
30.616514 1587.9744 748 4286074145
31.750458 1587.9744 748 4286270745
32.884403 1587.9744 748 4286270745
33.908257 1587.7284 746 4286205998
34.981651 1587.6055 745 4286139949
36.051376 1587.4825 744 4286205735
37.117432 1587.3596 743 4286337064
38.242203 1587.3596 743 4286402859
39.366974 1587.3596 743 4286337066
40.491745 1587.3596 743 4286206487
41.616512 1587.3596 743 4286403609
42.741283 1587.3596 743 4286141986
43.866055 1587.3596 743 4286076193
44.990826 1587.3596 743 4286141998
46.115597 1587.3596 743 4286207791
47.317432 1587.4825 744 4286864414
48.444038 1587.4825 744 4286864414
49.48991 1587.3596 743 4286929192
50.614677 1587.3596 743 4287060521
51.739449 1587.3596 743 4286798897
52.86422 1587.3596 743 4286798897
53.988991 1587.3596 743 4286734902
55.113762 1587.3596 743 4287787590
56.238533 1587.3596 743 4287786557
57.363304 1587.3596 743 4288839501
58.488075 1587.3596 743 4288970347
59.612843 1587.3596 743 4288575589
60.737614 1587.3596 743 4291330643
61.963303 1587.4825 744 4294956454
63.089909 1587.4825 744 4294956711
64.42569 1587.7284 746 4294951314
65.555962 1587.7284 746 4294031949
66.686241 1587.7284 746 4291466022
68.036697 1587.9744 748 4291335742
69.170639 1587.9744 748 4290480433
70.41835 1588.0973 749 4289690668
71.554131 1588.0973 749 4288045842
72.807343 1588.2202 750 4287256619
74.183487 1588.4661 752 4285874966
75.324768 1588.4661 752 4286004480
76.466057 1588.4661 752 4286727936
80.394493 1590.0642 765 4292914595
9.4825687 1590.2312 776 4286469414
10.618349 1589.8679 773 4286272291
11.761468 1589.6257 771 4286337568
12.937614 1589.6257 771 4285679639
14.091743 1589.5046 770 4286202401
15.194495 1589.1412 767 4286136608
16.311926 1588.899 765 4286071818
17.449541 1588.778 764 4286137611
18.524771 1588.4147 761 4286072329
19.651377 1588.2936 760 4285941000
20.774311 1588.1725 759 4286007822
21.893578 1588.0514 758 4285942029
23.009174 1587.9303 757 4285679641
24.159634 1587.9303 757 4285613848
25.188992 1587.567 754 4285810957
26.291742 1587.4459 753 4285877006
27.390825 1587.3247 752 4285942558
28.486238 1587.2036 751 4285876765
29.577982 1587.0825 750 4286139156
30.666056 1586.9614 749 4286139156
31.85321 1587.0825 750 4286204951
32.937614 1586.9614 749 4286533916
34.018349 1586.8403 748 4286402344
35.038532 1586.5981 746 4286336551
36.168808 1586.5981 746 4286337568
37.177982 1586.356 744 4286403361
38.304588 1586.356 744 4286272043
39.431194 1586.356 744 4286272043
40.557796 1586.356 744 4286337836
41.616512 1586.2349 743 4286469166
42.811008 1586.356 744 4286011684
43.937614 1586.356 744 4285880097
45.06422 1586.356 744 4286142502
46.190826 1586.356 744 4286208295
47.394497 1586.4771 745 4286929444
48.522934 1586.4771 745 4287126566
49.651375 1586.4771 745 4287191597
50.779816 1586.4771 745 4287257390
51.908257 1586.4771 745 4286405428
52.950459 1586.356 744 4285681449
54.077065 1586.356 744 4285879593
55.203671 1586.356 744 4287261246
56.330276 1586.356 744 4288245063
57.456882 1586.356 744 4289560667
58.488075 1586.2349 743 4289298283
59.710091 1586.356 744 4289100648
60.737614 1586.2349 743 4290936146
61.963303 1586.356 744 4294555018
63.500916 1586.8403 748 4293703053
64.634865 1586.8403 748 4293242502
65.768806 1586.8403 748 4291402834
67.011009 1586.9614 749 4291205456
68.14679 1586.9614 749 4289825615
69.28257 1586.9614 749 4289167685
