# .PCD v0.7 - Point Cloud Data file format
VERSION 0.7
FIELDS x y z rgb
SIZE 4 4 4 4
TYPE F F F U
COUNT 1 1 1 1
WIDTH 1376
HEIGHT 1
VIEWPOINT 0 0 0 1 0 0 0
POINTS 1376
DATA ascii
25.315596 1634.9614 787 4285227364
26.561468 1635.1487 788 4285030755
27.811008 1635.3358 789 4284964706
29.020184 1635.3358 789 4284702824
30.3211 1635.7101 791 4285097582
31.581652 1635.8972 792 4285228136
32.796329 1635.8972 792 4285228136
34.011009 1635.8972 792 4285358950
35.2789 1636.0844 793 4285358950
36.495415 1636.0844 793 4285358950
37.768806 1636.2716 794 4285293157
38.987156 1636.2716 794 4285096544
40.326607 1636.6459 796 4285096544
41.548622 1636.6459 796 4285162087
42.770641 1636.6459 796 4285228136
43.992661 1636.6459 796 4285032038
45.21468 1636.6459 796 4285032038
46.297249 1636.2716 794 4285097832
47.515594 1636.2716 794 4285097832
48.733944 1636.2716 794 4285425007
49.952293 1636.2716 794 4285425007
51.170643 1636.2716 794 4285424746
52.388992 1636.2716 794 4285490539
53.607338 1636.2716 794 4285554283
54.825687 1636.2716 794 4285685868
56.044037 1636.2716 794 4285883498
57.262386 1636.2716 794 4285949291
58.392662 1636.0844 793 4285949795
59.519264 1635.8972 792 4286146917
60.733944 1635.8972 792 4286015588
61.855045 1635.7101 791 4285949795
62.877064 1635.3358 789 4286410078
64.086235 1635.3358 789 4292726206
65.196327 1635.1487 788 4294505712
66.30275 1634.9614 787 4294966778
67.508255 1634.9614 787 4294374642
68.504585 1634.5872 785 4294177263
69.599998 1634.4 784 4293781740
70.800003 1634.4 784 4294373877
71.559631 1633.6514 780 4294570488
72.752296 1633.6514 780 4294636282
73.71743 1633.2771 778 4294308086
74.790825 1633.0898 777 4294505208
75.508255 1632.3413 773 4294440699
76.688072 1632.3413 773 4294704127
77.625687 1631.9669 771 4294440699
78.678902 1631.7798 770 4294572285
79.603668 1631.4055 768 4294177783
80.774315 1631.4055 768 4294506492
85.321098 1628.0367 750 4294834943
86.319267 1627.8495 749 4294967039
87.455048 1627.8495 749 4294768895
3.3853211 1625.9725 745 4285622631
4.4990826 1625.6018 743 4285096548
5.6238532 1625.6018 743 4285096548
7.0238533 1630.2349 768 4284900196
8.1816511 1630.0496 767 4284834403
9.3651381 1630.2349 768 4285096544
10.53578 1630.2349 768 4285096544
11.688073 1630.0496 767 4285029988
12.917431 1630.6055 770 4284964195
14.179816 1631.3468 774 4285422697
15.409174 1631.7174 776 4285685868
16.67156 1632.2734 779 4285488992
17.889908 1632.4587 780 4285423199
19.141285 1632.8293 782 4285030751
20.368807 1633.0146 783 4284964958
21.6 1633.2 784 4285227616
22.904587 1633.756 787 4285293409
24.110092 1633.756 787 4285096035
25.354128 1633.9413 788 4285096035
26.601835 1634.1266 789 4285030751
27.895412 1634.4972 791 4284964958
29.108257 1634.4972 791 4284964708
30.366972 1634.6826 792 4285425259
31.629358 1634.8679 793 4285359202
32.845871 1634.8679 793 4285293409
34.113762 1635.0532 794 4285293157
35.438534 1635.4238 796 4285358950
36.660549 1635.4238 796 4285293157
37.882568 1635.4238 796 4285227364
39.222019 1635.7944 798 4285096548
40.447708 1635.7944 798 4285096548
41.673393 1635.7944 798 4285293157
42.899082 1635.7944 798 4285358950
44.256882 1636.1652 800 4285162341
45.21468 1635.4238 796 4285162341
46.436699 1635.4238 796 4285295206
47.658714 1635.4238 796 4285295206
48.880733 1635.4238 796 4285294706
49.952293 1635.0532 794 4285097328
51.324772 1635.4238 796 4285424746
52.546787 1635.4238 796 4285358952
53.607338 1635.0532 794 4285358197
54.825687 1635.0532 794 4285226610
56.212845 1635.4238 796 4285227110
57.434864 1635.4238 796 4285424746
58.656879 1635.4238 796 4285490789
59.609173 1634.8679 793 4285753960
60.825687 1634.8679 793 4285754210
61.855045 1634.4972 791 4285885797
63.06789 1634.4972 791 4286540651
64.086235 1634.1266 789 4292198849
65.196327 1633.9413 788 4294964716
66.403671 1633.9413 788 4294967286
67.508255 1633.756 787 4294834678
68.71376 1633.756 787 4294571506
69.706421 1633.3854 785 4294374131
70.800003 1633.2 784 4294308338
71.779816 1632.8293 782 4294505206
72.752296 1632.4587 780 4294966271
73.831192 1632.2734 779 4294570742
74.790825 1631.9027 777 4294570742
75.625687 1631.3468 774 4294834943
76.807343 1631.3468 774 4294967295
77.625687 1630.7908 771 4294900735
78.801834 1630.7908 771 4294900735
79.603668 1630.2349 768 4294703357
81.027519 1630.6055 770 4294703357
85.321098 1626.899 750 4294637308
86.319267 1626.7137 749 4294703357
87.313759 1626.5284 748 4294966783
3.3853211 1624.844 745 4285096035
4.506422 1624.6605 744 4284964708
5.6330276 1624.6605 744 4285096294
6.7596331 1624.6605 744 4284965739
8.1944952 1629.0642 768 4284899946
9.394495 1629.4312 770 4285162593
10.53578 1629.0642 768 4285162593
11.706422 1629.0642 768 4284964708
12.937614 1629.6146 771 4284767585
14.179816 1630.1652 774 4285357156
15.433027 1630.7156 777 4285488742
16.774311 1631.8165 783 4285488992
17.972477 1631.8165 783 4285423199
19.200001 1632 784 4285030751
20.431192 1632.1835 785 4284833629
21.732111 1632.7339 788 4285030751
22.974312 1632.9175 789 4285096544
24.183487 1632.9175 789 4284833379
25.469725 1633.2844 791 4284833379
26.68257 1633.2844 791 4285096031
27.979816 1633.6514 793 4284964445
29.196331 1633.6514 793 4284898401
30.458715 1633.8348 794 4285095781
31.677065 1633.8348 794 4285227364
32.994495 1634.2018 796 4285227364
34.216515 1634.2018 796 4285227110
35.491745 1634.3854 797 4285358952
36.770641 1634.5688 798 4285162087
37.99633 1634.5688 798 4285030501
39.339451 1634.9358 800 4285096544
40.568806 1634.9358 800 4285162593
41.798164 1634.9358 800 4285227616
43.027523 1634.9358 800 4285424996
44.256882 1634.9358 800 4285162341
45.48624 1634.9358 800 4285162341
46.715595 1634.9358 800 4285097832
47.801834 1634.5688 798 4285097832
48.880733 1634.2018 796 4285031532
50.102753 1634.2018 796 4284899946
51.324772 1634.2018 796 4285227110
52.546787 1634.2018 796 4285358952
53.768806 1634.2018 796 4285358700
54.990826 1634.2018 796 4285227114
56.297249 1634.3854 797 4284898651
57.434864 1634.2018 796 4285359202
58.744953 1634.3854 797 4285424996
59.699081 1633.8348 794 4285424996
61.100918 1634.2018 796 4285949795
61.948624 1633.4679 792 4285686366
63.163303 1633.4679 792 4286801770
64.280731 1633.2844 791 4291999417
65.29541 1632.9175 789 4293384404
66.403671 1632.7339 788 4294831850
67.611008 1632.7339 788 4294569970
68.818352 1632.7339 788 4294635763
69.919266 1632.5504 787 4294505206
70.908257 1632.1835 785 4294308084
72 1632 784 4294504947
73.088074 1631.8165 783 4294965755
74.172478 1631.6331 782 4294637049
75.022018 1631.0825 779 4294768635
75.625687 1630.1652 774 4294967295
77.625687 1629.6146 771 4294966271
78.801834 1629.6146 771 4294965759
79.85321 1629.4312 770 4294703357
81.027519 1629.4312 770 4294703357
3.3908257 1623.8972 746 4285030755
4.506422 1623.5339 744 4284702824
5.6238532 1623.3523 743 4285294704
7.0128441 1627.7119 767 4285031535
8.168807 1627.5303 766 4284834155
9.394495 1628.2568 770 4284834403
10.53578 1627.8936 768 4284900196
11.706422 1627.8936 768 4285030755
12.877064 1627.8936 768 4284833377
14.047707 1627.8936 768 4285030242
15.576147 1630.6184 783 4285227364
16.774311 1630.6184 783 4285227616
18 1630.8 784 4285096031
19.229359 1630.9817 785 4285096283
20.493578 1631.345 787 4285030490
21.765137 1631.7083 789 4285096031
22.974312 1631.7083 789 4285424996
24.183487 1631.7083 789 4284964193
25.469725 1632.0715 791 4284898399
26.722937 1632.2532 792 4284767835
27.979816 1632.4348 793 4284702042
29.240368 1632.6165 794 4285225567
30.550459 1632.9799 796 4285225567
31.772476 1632.9799 796 4285225313
33.044037 1633.1615 797 4285357156
34.267891 1633.1615 797 4285095781
35.544952 1633.3431 798 4285556332
36.880733 1633.7064 800 4285358952
38.110092 1633.7064 800 4285029988
39.398167 1633.8881 801 4285227866
40.568806 1633.7064 800 4285227866
41.86055 1633.8881 801 4285227616
43.091743 1633.8881 801 4285227616
44.322937 1633.8881 801 4285227364
45.554127 1633.8881 801 4285096035
46.78532 1633.8881 801 4285030751
47.944954 1633.7064 800 4285030751
49.174313 1633.7064 800 4285358950
50.403671 1633.7064 800 4285293157
51.633026 1633.7064 800 4285619558
52.862385 1633.7064 800 4286014316
53.930275 1633.3431 798 4285424996
55.155964 1633.3431 798 4285424996
56.381653 1633.3431 798 4285228636
57.607338 1633.3431 798 4285425759
58.833027 1633.3431 798 4285359202
59.878899 1632.9799 796 4285030238
61.100918 1632.9799 796 4286015336
62.322937 1632.9799 796 4285817957
63.35413 1632.6165 794 4286276711
64.280731 1632.0715 791 4289434519
65.493576 1632.0715 791 4291870633
66.504585 1631.7083 789 4293515459
67.71376 1631.7083 789 4293188586
68.922935 1631.7083 789 4294504445
70.025688 1631.5266 788 4294571002
71.124771 1631.345 787 4294702844
72.110092 1630.9817 785 4294702840
73.199997 1630.8 784 4294967295
74.172478 1630.4366 782 4294967295
75.137611 1630.0734 780 4294967295
78.801834 1628.4385 771 4294768635
79.977982 1628.4385 771 4294636795
81.154129 1628.4385 771 4294636795
3.3908257 1622.767 746 4285030751
4.506422 1622.4073 744 4284900196
5.6238532 1622.2275 743 4284900196
6.7486238 1622.2275 743 4284703337
8.168807 1626.3633 766 4284374372
9.394495 1627.0825 770 4284571487
10.53578 1626.7229 768 4284834403
11.706422 1626.7229 768 4285227616
12.877064 1626.7229 768 4285030238
15.695413 1630.3192 788 4285096031
16.902752 1630.3192 788 4285096283
18.027523 1629.7798 785 4285030490
19.31743 1630.3192 788 4285096537
20.555964 1630.499 789 4285096537
21.831192 1630.8588 791 4284964445
23.044037 1630.8588 791 4284898651
24.25688 1630.8588 791 4284898401
25.585321 1631.3982 794 4284898401
26.803669 1631.3982 794 4284898401
28.106422 1631.7578 796 4284832608
29.32844 1631.7578 796 4285487457
30.642202 1632.1174 798 4285685092
31.820183 1631.9376 797 4285749850
33.093578 1632.1174 798 4285881435
34.319267 1632.1174 798 4285619299
35.651375 1632.4771 800 4285816421
36.880733 1632.4771 800 4285554535
38.166973 1632.6569 801 4285422949
39.398167 1632.6569 801 4285096283
40.629356 1632.6569 801 4285096283
41.86055 1632.6569 801 4285227616
43.091743 1632.6569 801 4285227616
44.388992 1632.8367 802 4285227616
45.622017 1632.8367 802 4285227616
46.855045 1632.8367 802 4284570204
48.016514 1632.6569 801 4284833377
49.321102 1632.8367 802 4285685351
50.478901 1632.6569 801 4285619558
51.710091 1632.6569 801 4285488742
52.862385 1632.4771 800 4285685864
54.091743 1632.4771 800 4285293157
55.321102 1632.4771 800 4285424744
56.550457 1632.4771 800 4285098084
57.779816 1632.4771 800 4285098084
58.833027 1632.1174 798 4285425509
59.968807 1631.9376 797 4285294180
61.100918 1631.7578 796 4286344812
62.13578 1631.3982 794 4286016103
63.35413 1631.3982 794 4286145389
64.377983 1631.0386 792 4289764004
65.493576 1630.8588 791 4289767840
66.706421 1630.8588 791 4292794061
67.71376 1630.499 789 4293057762
68.922935 1630.499 789 4294636795
70.025688 1630.3192 788 4294506231
71.233025 1630.3192 788 4294637560
72.110092 1629.7798 785 4294703355
73.199997 1629.6 784 4294967295
78.924774 1627.4421 772 4294834428
79.977982 1627.2623 771 4294505208
81.154129 1627.2623 771 4294571002
3.3853211 1621.4587 745 4285227616
4.4990826 1621.1028 743 4285096035
5.6146789 1620.9248 742 4285096035
6.7155962 1620.5688 740 4284703076
7.8348622 1620.5688 740 4284571233
9.394495 1625.9082 770 4284833629
10.53578 1625.5522 768 4284964958
11.706422 1625.5522 768 4285096537
12.877064 1625.5522 768 4284833108
15.695413 1629.1119 788 4284964445
16.902752 1629.1119 788 4284964695
18.110092 1629.1119 788 4284372557
19.346788 1629.2899 789 4284899151
20.618349 1629.6459 791 4284964944
21.897247 1630.0018 793 4284766813
23.078899 1629.8239 792 4284766813
24.366972 1630.1798 794 4284832608
25.585321 1630.1798 794 4284898401
26.884403 1630.5358 796 4284636777
28.148624 1630.7137 797 4284505190
29.372477 1630.7137 797 4284898401
30.733946 1631.2477 800 4284964195
31.963303 1631.2477 800 4285291609
33.242203 1631.4257 801 4285489244
34.42202 1631.2477 800 4285357154
35.704586 1631.4257 801 4285422947
36.93578 1631.4257 801 4285095781
38.223854 1631.6036 802 4285095781
39.456882 1631.6036 802 4285423199
40.689907 1631.6036 802 4285028441
41.922935 1631.6036 802 4284766559
43.155964 1631.6036 802 4285227110
44.388992 1631.6036 802 4285293409
45.622017 1631.6036 802 4285359202
46.994495 1631.9596 804 4285030755
48.088074 1631.6036 802 4284964706
49.467892 1631.9596 804 4285095531
50.554127 1631.6036 802 4285095531
51.787155 1631.6036 802 4285422947
52.941284 1631.4257 801 4285422947
54.172478 1631.4257 801 4285095781
55.321102 1631.2477 800 4285358952
56.550457 1631.2477 800 4285359202
57.779816 1631.2477 800 4285293409
59.009174 1631.2477 800 4285358950
60.238533 1631.2477 800 4285490793
61.284405 1630.8917 798 4286015588
62.416515 1630.7137 797 4286015588
63.544952 1630.5358 796 4285950588
64.572479 1630.1798 794 4290029754
65.592659 1629.8239 792 4290425784
66.807343 1629.8239 792 4292728539
67.919266 1629.6459 791 4292794854
69.132111 1629.6459 791 4294900479
70.132111 1629.2899 789 4294769146
71.233025 1629.1119 788 4294967039
72.330276 1628.934 787 4294967295
73.311928 1628.578 785 4294967295
79.977982 1626.0862 771 4294636795
83.097244 1620.9248 742 4294308597
84.220184 1620.9248 742 4294242804
6.704587 1619.2734 739 4284964193
7.8220181 1619.2734 739 4284964193
8.9394493 1619.2734 739 4284964697
10.040367 1619.0973 738 4285030490
11.155963 1619.0973 738 4284964697
12.251376 1618.9211 737 4284833110
15.719266 1628.0807 789 4284964697
16.92844 1628.0807 789 4284833881
18.110092 1627.9045 788 4284833881
19.405504 1628.433 791 4284833881
20.649542 1628.6091 792 4284833881
21.897247 1628.7853 793 4284767585
23.113762 1628.7853 793 4284767585
24.366972 1628.9614 794 4284701790
25.662386 1629.3137 796 4284767583
26.92477 1629.4899 797 4284505440
28.190826 1629.666 798 4284373854
29.504587 1630.0183 800 4284701536
30.779816 1630.1945 801 4284833379
32.011009 1630.1945 801 4284964445
33.291744 1630.3706 802 4285030238
34.473396 1630.1945 801 4284833377
35.757797 1630.3706 802 4284964706
36.990826 1630.3706 802 4285227114
38.337616 1630.7229 804 4285095785
39.57431 1630.7229 804 4285488992
40.689907 1630.3706 802 4285291613
41.922935 1630.3706 802 4285225819
43.284405 1630.7229 804 4285423199
44.521099 1630.7229 804 4285096031
45.757797 1630.7229 804 4285227616
47.06422 1630.899 805 4285096544
48.231194 1630.7229 804 4285030751
49.541283 1630.899 805 4285030501
50.704586 1630.7229 804 4285030501
51.941284 1630.7229 804 4285488992
53.020184 1630.3706 802 4285488992
54.253212 1630.3706 802 4285619295
55.403671 1630.1945 801 4286079846
56.634861 1630.1945 801 4285948260
57.866055 1630.1945 801 4285948260
59.097248 1630.1945 801 4285817957
60.238533 1630.0183 800 4285752164
61.467892 1630.0183 800 4285752160
62.51009 1629.666 798 4285884002
63.544952 1629.3137 796 4285951101
64.86422 1629.4899 797 4290161853
65.988991 1629.3137 796 4290558646
67.009171 1628.9614 794 4291940299
67.919266 1628.433 791 4292335073
69.132111 1628.433 791 4294572031
70.344955 1628.433 791 4294440186
71.341286 1628.0807 789 4294966527
72.440369 1627.9045 788 4294834943
82.961472 1619.6257 741 4294177011
84.082565 1619.6257 741 4294308597
85.203667 1619.6257 741 4294505208
8.9247704 1617.9817 738 4284964697
10.023853 1617.8074 737 4284964697
11.137614 1617.8074 737 4284898903
12.251376 1617.8074 737 4284767061
13.365138 1617.8074 737 4284702038
15.695413 1626.6973 788 4284636245
16.902752 1626.6973 788 4284702042
18.137615 1626.8716 789 4284702042
19.46422 1627.5688 793 4284701790
20.680735 1627.5688 793 4284701790
21.930275 1627.7432 794 4284767334
23.148624 1627.7432 794 4284701540
24.440367 1628.0918 796 4284766813
25.700918 1628.2661 797 4284832606
26.965137 1628.4404 798 4284635993
28.275229 1628.7889 800 4284570200
29.548624 1628.9633 801 4284766813
30.825687 1629.1376 802 4284832606
32.154129 1629.4862 804 4284964445
33.390827 1629.4862 804 4285030238
34.627522 1629.4862 804 4284767585
35.86422 1629.4862 804 4284701536
37.100918 1629.4862 804 4285030251
38.337616 1629.4862 804 4285030251
39.57431 1629.4862 804 4285096031
40.871559 1629.6605 805 4284964445
42.110092 1629.6605 805 4284832858
43.348625 1629.6605 805 4284964445
44.587154 1629.6605 805 4284964445
45.893578 1629.8348 806 4284964445
47.133945 1629.8348 806 4285030994
48.374313 1629.8348 806 4285096787
49.614677 1629.8348 806 4285030242
50.779816 1629.6605 805 4284964193
52.018349 1629.6605 805 4285225815
53.177982 1629.4862 804 4285357658
54.41468 1629.4862 804 4285422947
55.48624 1629.1376 802 4285751912
56.719265 1629.1376 802 4285752164
57.952293 1629.1376 802 4285817957
59.097248 1628.9633 801 4285358952
60.328442 1628.9633 801 4285227110
61.467892 1628.7889 800 4285490789
62.697247 1628.7889 800 4285885547
63.735779 1628.4404 798 4286477182
64.961472 1628.4404 798 4290556348
66.088074 1628.2661 797 4290755248
67.211006 1628.0918 796 4291544508
68.227524 1627.7432 794 4292662755
69.341286 1627.5688 793 4294966271
70.344955 1627.2202 791 4294966015
71.5578 1627.2202 791 4294967295
79.337616 1618.156 739 4294505460
80.587158 1618.3303 740 4294571256
81.84037 1618.5046 741 4294834428
82.961472 1618.5046 741 4294374906
84.082565 1618.5046 741 4294440699
85.203667 1618.5046 741 4294505979
8.9247704 1616.8661 738 4285225815
10.007339 1616.5211 736 4285291609
11.137614 1616.6936 737 4284832858
12.251376 1616.6936 737 4284832858
13.365138 1616.6936 737 4284439897
14.407339 1616.1761 734 4284374104
17.005505 1626.1798 792 4284309081
18.220184 1626.1798 792 4284309081
19.493578 1626.5248 794 4284242523
20.711927 1626.5248 794 4284373852
21.930275 1626.5248 794 4284439395
23.218349 1626.8698 796 4284505188
24.477064 1627.0422 797 4285028441
25.73945 1627.2147 798 4285094234
27.045872 1627.5596 800 4284832858
28.359632 1627.9045 802 4284767065
29.592661 1627.9045 802 4284832858
30.917431 1628.2495 804 4284964445
32.154129 1628.2495 804 4285094238
33.440369 1628.422 805 4285028189
34.627522 1628.2495 804 4284437848
35.917431 1628.422 805 4284898399
37.155964 1628.422 805 4284833379
38.394497 1628.422 805 4284767585
39.633026 1628.422 805 4284833629
40.871559 1628.422 805 4284833629
42.172478 1628.5945 806 4284833629
43.412846 1628.5945 806 4284833629
44.65321 1628.5945 806 4284833377
45.893578 1628.5945 806 4284833377
47.133945 1628.5945 806 4285293661
48.374313 1628.5945 806 4285227612
49.614677 1628.5945 806 4284964195
50.855045 1628.5945 806 4284766559
52.018349 1628.422 805 4284633683
53.256882 1628.422 805 4285423199
54.495415 1628.422 805 4285029988
55.733944 1628.422 805 4285358952
56.888073 1628.2495 804 4285228134
57.952293 1627.9045 802 4285293928
59.097248 1627.7321 801 4285227364
60.328442 1627.7321 801 4285227364
61.559631 1627.7321 801 4285424996
62.790825 1627.7321 801 4285951340
63.926605 1627.5596 800 4287593100
65.15596 1627.5596 800 4291343301
66.187157 1627.2147 798 4291346354
67.311928 1627.0422 797 4292596165
68.433029 1626.8698 796 4293583593
69.445869 1626.5248 794 4294967039
70.451378 1626.1798 792 4294966015
71.5578 1626.0073 791 4294967295
72.550461 1625.6624 789 4294967295
73.759636 1625.6624 789 4294901247
78.220184 1617.0386 739 4294505460
79.337616 1617.0386 739 4294571254
80.455048 1617.0386 739 4294373879
81.706421 1617.2111 740 4294768637
82.825691 1617.2111 740 4294177783
83.944954 1617.2111 740 4294243576
85.064217 1617.2111 740 4294505979
8.9100914 1615.5798 737 4284898651
10.007339 1615.4092 736 4284898651
11.137614 1615.5798 737 4284766813
12.251376 1615.5798 737 4284635484
13.34312 1615.4092 736 4284373852
14.407339 1615.0679 734 4284373852
17.005505 1624.9651 792 4284373852
18.247707 1625.1357 793 4284373852
19.493578 1625.3064 794 4284176730
20.711927 1625.3064 794 4284176730
21.99633 1625.6477 796 4284635997
23.218349 1625.6477 796 4284635997
24.513762 1625.989 798 4284635484
25.816513 1626.3303 800 4284766813
27.086239 1626.501 801 4284635993
28.359632 1626.6715 802 4284504407
29.680735 1627.0128 804 4284635993
30.963303 1627.1835 805 4284702042
32.201836 1627.1835 805 4284832858
33.48991 1627.3541 806 4284569687
34.678898 1627.1835 805 4284569691
35.917431 1627.1835 805 4285096035
37.21101 1627.3541 806 4284898399
38.451378 1627.3541 806 4284832606
39.691742 1627.3541 806 4284898903
40.93211 1627.3541 806 4284964697
42.297249 1627.6954 808 4284767835
43.605503 1627.8661 809 4284702042
44.78532 1627.6954 808 4284767334
46.029358 1627.6954 808 4284767334
47.273396 1627.6954 808 4285227612
48.374313 1627.3541 806 4285096283
49.761467 1627.6954 808 4285291111
50.855045 1627.3541 806 4285225318
52.095413 1627.3541 806 4285094236
53.335781 1627.3541 806 4285488994
54.576145 1627.3541 806 4285095781
55.816513 1627.3541 806 4285029988
56.972477 1627.1835 805 4285096548
58.124771 1627.0128 804 4285293928
59.185322 1626.6715 802 4285227616
60.328442 1626.501 801 4285096031
61.559631 1626.501 801 4284965210
62.790825 1626.501 801 4286610291
63.926605 1626.3303 800 4287463338
65.15596 1626.3303 800 4291081953
66.385323 1626.3303 800 4291082666
67.412842 1625.989 798 4292990663
68.535782 1625.8184 797 4293583591
69.445869 1625.3064 794 4294967295
70.5578 1625.1357 793 4294967295
71.5578 1624.7944 791 4294967295
72.550461 1624.4532 789 4294967295
73.759636 1624.4532 789 4294967039
78.220184 1615.9211 739 4294505206
79.337616 1615.9211 739 4294637049
80.455048 1615.9211 739 4294571002
81.706421 1616.0918 740 4294966015
82.961472 1616.2623 741 4294505979
84.082565 1616.2623 741 4294440186
85.064217 1616.0918 740 4294637049
86.324768 1616.2623 741 4294571256
7.8220181 1614.8037 739 4284832858
8.9100914 1614.4661 737 4284702042
10.007339 1614.2972 736 4284702042
11.155963 1614.6349 738 4284635997
12.251376 1614.4661 737 4284570204
13.34312 1614.2972 736 4284373852
14.407339 1613.9596 734 4284242523
17.031193 1623.9193 793 4284504157
18.275229 1624.0881 794 4284504157
19.552294 1624.4257 796 4284504155
20.774311 1624.4257 796 4284570204
21.99633 1624.4257 796 4284766813
23.25321 1624.5945 797 4284635484
24.623854 1625.2698 801 4284569691
25.855045 1625.2698 801 4284569691
27.126606 1625.4385 802 4284242523
28.444036 1625.7761 804 4284110936
29.680735 1625.7761 804 4284176730
30.963303 1625.9449 805 4284439645
32.249542 1626.1138 806 4284635993
33.48991 1626.1138 806 4284570200
34.730274 1626.1138 806 4284635484
36.077065 1626.4514 808 4284569691
37.321102 1626.4514 808 4284569691
38.622017 1626.6202 809 4284766813
39.867889 1626.6202 809 4284636245
41.174313 1626.7889 810 4284570452
42.42202 1626.7889 810 4284570204
43.669724 1626.7889 810 4284701790
44.917431 1626.7889 810 4284701536
46.165138 1626.7889 810 4284833379
47.273396 1626.4514 808 4285357406
48.517429 1626.4514 808 4285423199
49.761467 1626.4514 808 4285291361
51.005505 1626.4514 808 4285291361
52.249542 1626.4514 808 4285291613
53.335781 1626.1138 806 4285488992
54.576145 1626.1138 806 4285227114
55.816513 1626.1138 806 4285029736
57.056881 1626.1138 806 4284832606
58.21101 1625.9449 805 4285227364
59.361469 1625.7761 804 4285227866
60.41835 1625.4385 802 4285030488
61.651375 1625.4385 802 4284505942
62.790825 1625.2698 801 4287993228
64.022018 1625.2698 801 4289438900
65.253212 1625.2698 801 4289702072
66.385323 1625.101 800 4289831305
67.614677 1625.101 800 4293515713
68.638535 1624.7633 798 4293584877
69.655045 1624.4257 796 4294967295
70.5578 1623.9193 793 4294967295
71.666054 1623.7505 792 4294967295
72.770645 1623.5817 791 4294834428
73.759636 1623.244 789 4294965757
78.220184 1614.8037 739 4294504693
79.337616 1614.8037 739 4294636536
80.455048 1614.8037 739 4294636282
81.706421 1614.9725 740 4294833660
82.825691 1614.9725 740 4294373879
83.944954 1614.9725 740 4294373879
85.064217 1614.9725 740 4294636536
86.183487 1614.9725 740 4294767865
8.9394493 1613.6863 739 4284767061
10.040367 1613.5193 738 4284833110
11.174312 1613.6863 739 4284701536
12.27156 1613.5193 738 4284635743
13.365138 1613.3523 737 4284504155
14.455046 1613.1853 736 4284372826
15.515596 1612.8513 734 4284372576
16.596331 1612.6844 733 4284306783
19.552294 1623.2036 796 4284569691
20.774311 1623.2036 796 4284898399
21.99633 1623.2036 796 4284635480
23.25321 1623.3706 797 4284569687
24.623854 1624.0386 801 4284503642
25.893578 1624.2056 802 4284503642
27.247707 1624.7064 805 4284372826
28.486238 1624.7064 805 4284307032
29.768806 1624.8734 806 4284504155
31.100918 1625.2073 808 4284570204
32.344955 1625.2073 808 4284504407
33.638531 1625.3743 809 4284504407
34.93578 1625.5413 810 4284504155
36.183487 1625.5413 810 4284372826
37.541283 1625.8752 812 4284372826
38.678898 1625.5413 810 4284372826
40.044037 1625.8752 812 4284241487
41.295414 1625.8752 812 4284373330
42.546787 1625.8752 812 4284504155
43.798164 1625.8752 812 4284504155
45.049541 1625.8752 812 4284569950
46.165138 1625.5413 810 4284833379
47.343121 1625.3743 809 4284964445
48.660549 1625.5413 810 4284964445
49.834862 1625.3743 809 4285291613
51.080734 1625.3743 809 4285225819
52.326607 1625.3743 809 4285094486
53.49358 1625.2073 808 4285357658
54.737614 1625.2073 808 4285226860
55.981651 1625.2073 808 4285226860
57.225689 1625.2073 808 4285227616
58.297249 1624.8734 806 4284964445
59.449543 1624.7064 805 4284899151
60.688072 1624.7064 805 4284964944
61.834862 1624.5394 804 4285228116
62.884403 1624.2056 802 4290623399
64.117432 1624.2056 802 4290885051
65.253212 1624.0386 801 4289174433
66.484406 1624.0386 801 4288714886
67.614677 1623.8716 800 4293517519
68.84404 1623.8716 800 4294835195
69.759636 1623.3706 797 4294967295
70.877068 1623.2036 796 4294967295
71.774315 1622.7028 793 4294967295
72.880737 1622.5358 792 4294966783
78.091743 1613.5193 738 4294966526
79.337616 1613.6863 739 4294967039
80.455048 1613.6863 739 4294702844
81.706421 1613.8533 740 4294636795
82.961472 1614.0201 741 4294373627
84.082565 1614.0201 741 4294242041
85.203667 1614.0201 741 4294571254
7.8733945 1613.2294 743 4284635986
8.9541283 1612.7339 740 4284896855
10.056881 1612.5688 739 4284831062
11.19266 1612.7339 740 4284306264
12.291743 1612.5688 739 4284306264
13.387156 1612.4037 738 4284437848
14.407339 1611.7432 734 4284503642
15.515596 1611.7432 734 4284503644
16.568808 1611.4128 732 4284569437
17.673395 1611.4128 732 4285028441
18.809174 1611.578 733 4284962648
21.99633 1621.9817 796 4284831314
23.288073 1622.3119 798 4284831314
24.660551 1622.9725 802 4284503642
25.970642 1623.3027 804 4284503642
27.247707 1623.4679 805 4284372828
28.52844 1623.6331 806 4284504157
29.768806 1623.6331 806 4284569687
31.100918 1623.9633 808 4284767065
32.392662 1624.1284 809 4284504407
33.688072 1624.2936 810 4284373078
35.038532 1624.6239 812 4284373852
36.289909 1624.6239 812 4284373852
37.541283 1624.6239 812 4284176730
38.79266 1624.6239 812 4284110936
40.102753 1624.7889 813 4284373330
41.355965 1624.7889 813 4284373330
42.609173 1624.7889 813 4284569691
43.862385 1624.7889 813 4284569691
45.115597 1624.7889 813 4284240989
46.368809 1624.7889 813 4284701540
47.412846 1624.2936 810 4284701790
48.803669 1624.6239 812 4284767583
50.055046 1624.6239 812 4284898401
51.155964 1624.2936 810 4284964195
52.403671 1624.2936 810 4284964193
53.651375 1624.2936 810 4284964193
54.899082 1624.2936 810 4284833127
56.14679 1624.2936 810 4284964456
57.310093 1624.1284 809 4285227364
58.555962 1624.1284 809 4285096035
59.71376 1623.9633 808 4284636499
60.777981 1623.6331 806 4284702292
61.926605 1623.4679 805 4285163877
63.07156 1623.3027 804 4290756282
64.117432 1622.9725 802 4291610055
65.350456 1622.9725 802 4288320405
66.484406 1622.8074 801 4287990405
67.715599 1622.8074 801 4294109154
68.84404 1622.6422 800 4294966783
69.759636 1622.1467 797 4294967295
70.877068 1621.9817 796 4294967295
71.882568 1621.6514 794 4294967295
72.880737 1621.321 792 4294967295
77.963303 1612.2385 737 4294967295
79.207336 1612.4037 738 4294967295
80.455048 1612.5688 739 4294636795
81.572479 1612.5688 739 4294571002
82.825691 1612.7339 740 4294242552
84.082565 1612.899 741 4294242552
7.8477063 1611.778 741 4284569939
8.9688072 1611.778 741 4284831062
10.089909 1611.778 741 4284831062
11.19266 1611.6146 740 4284437850
12.291743 1611.4514 739 4284372057
13.387156 1611.2881 738 4284437848
14.407339 1610.6349 734 4284503642
15.515596 1610.6349 734 4284830810
16.596331 1610.4716 733 4284830810
17.702753 1610.4716 733 4284831062
18.777981 1610.3082 732 4284831062
22.062386 1621.0862 798 4284633935
23.39266 1621.5762 801 4284897107
24.733946 1622.066 804 4284503642
26.009174 1622.2294 805 4284437848
27.288073 1622.3927 806 4284372828
28.52844 1622.3927 806 4284307034
29.85688 1622.7192 808 4284503642
31.14679 1622.8826 809 4284503642
32.440369 1623.0459 810 4284437848
33.787155 1623.3724 812 4284437848
35.089909 1623.5358 813 4284373078
36.343121 1623.5358 813 4284504407
37.651375 1623.6991 814 4284504407
38.906422 1623.6991 814 4284373078
40.161469 1623.6991 814 4284569687
41.416515 1623.6991 814 4284569687
42.671558 1623.6991 814 4284569691
43.926605 1623.6991 814 4284569691
45.313763 1624.0256 816 4284372072
46.572475 1624.0256 816 4284569450
47.831192 1624.0256 816 4284701790
48.946789 1623.6991 814 4284767583
50.201836 1623.6991 814 4284767080
51.381653 1623.5358 813 4284701286
52.711926 1623.6991 814 4284701790
53.966972 1623.6991 814 4284767583
55.141285 1623.5358 813 4284767585
56.394497 1623.5358 813 4284767585
57.563301 1623.3724 812 4284964195
58.814678 1623.3724 812 4285227110
59.889908 1623.0459 810 4284898903
61.047707 1622.8826 809 4286477936
62.018349 1622.3927 806 4287923358
63.165138 1622.2294 805 4291476437
64.308258 1622.066 804 4290884519
65.350456 1621.7395 802 4287594869
66.484406 1621.5762 801 4288384661
67.715599 1621.5762 801 4294635252
68.84404 1621.4128 800 4294967295
69.759636 1620.923 797 4294967295
70.877068 1620.7596 796 4294967295
71.882568 1620.433 794 4294967295
72.880737 1620.1064 792 4294967295
74.007339 1610.3082 732 4294967295
74.98716 1610.1449 731 4294967295
76.343117 1610.4716 733 4294967295
77.57798 1610.6349 734 4294967295
79.207336 1611.2881 738 4294967039
80.455048 1611.4514 739 4294768637
81.572479 1611.4514 739 4294768637
82.825691 1611.6146 740 4294440186
84.082565 1611.778 741 4294900735
8.9834862 1610.8184 742 4284503894
10.106422 1610.8184 742 4284438100
11.211009 1610.6569 741 4284437848
12.311927 1610.4954 740 4284372055
13.387156 1610.1725 738 4284633433
14.407339 1609.5266 734 4284764762
15.515596 1609.5266 734 4284765016
16.596331 1609.3651 733 4284633687
17.702753 1609.3651 733 4284372055
18.777981 1609.2036 732 4284372055
19.849541 1609.0422 731 4284438100
20.917431 1608.8807 730 4284372307
24.733946 1620.8293 804 4284437848
25.970642 1620.8293 804 4284437848
27.247707 1620.9908 805 4284306783
28.52844 1621.1523 806 4284175196
29.900917 1621.6367 809 4284306514
31.284403 1622.1211 812 4284372307
32.535778 1622.1211 812 4284306262
33.836697 1622.2826 813 4284372055
35.141285 1622.4441 814 4284438100
36.396332 1622.4441 814 4284503894
37.761467 1622.767 816 4284569687
39.020184 1622.767 816 4284569687
40.2789 1622.767 816 4284437848
41.537613 1622.767 816 4284766813
42.796329 1622.767 816 4284635480
44.055046 1622.767 816 4284635480
45.313763 1622.767 816 4284569691
46.572475 1622.767 816 4284635484
47.831192 1622.767 816 4284635997
49.089909 1622.767 816 4284570204
50.201836 1622.4441 814 4284635997
51.456882 1622.4441 814 4284570204
52.711926 1622.4441 814 4284176730
53.966972 1622.4441 814 4284110936
55.222019 1622.4441 814 4284110682
56.477066 1622.4441 814 4284505440
57.647705 1622.2826 813 4284504407
58.900917 1622.2826 813 4284702042
60.066055 1622.1211 812 4284309333
61.317432 1622.1211 812 4287861899
62.385323 1621.7982 810 4290160054
63.258717 1621.1523 806 4289699503
64.403671 1620.9908 805 4289434743
65.544952 1620.8293 804 4288316519
66.484406 1620.345 801 4288714132
67.715599 1620.345 801 4294964981
68.946793 1620.345 801 4294967295
69.86422 1619.8606 798 4294967295
70.877068 1619.5376 796 4294967295
71.882568 1619.2147 794 4294967295
72.902756 1609.2036 732 4294966783
74.130272 1609.3651 733 4294967295
75.111923 1609.2036 732 4294967295
76.343117 1609.3651 733 4294967295
77.834862 1609.8495 736 4294967295
79.207336 1610.1725 738 4294967295
80.455048 1610.334 739 4294769150
81.572479 1610.334 739 4294637308
82.825691 1610.4954 740 4294308599
84.082565 1610.6569 741 4294703357
3.440367 1611.7706 755 4284372826
8.9981651 1609.8551 743 4284307284
10.122936 1609.8551 743 4284307284
11.229358 1609.6954 742 4284241239
12.33211 1609.5358 741 4284241239
13.409174 1609.2166 739 4284437850
14.455046 1608.7377 736 4284372057
15.515596 1608.4183 734 4283977048
16.596331 1608.2587 733 4283977048
17.702753 1608.2587 733 4284306264
18.777981 1608.0991 732 4284306264
19.849541 1607.9395 731 4284372307
20.917431 1607.7798 730 4284372307
21.981651 1607.6202 729 4284372057
26.009174 1619.7523 805 4284832608
24.179817 1607.6202 729 4284766559
28.655046 1620.3909 809 4284174679
29.944954 1620.5504 810 4284109136
31.330275 1621.0293 813 4284306514
32.631191 1621.189 814 4284372055
33.886238 1621.189 814 4284372055
35.244038 1621.5083 816 4284372055
36.50275 1621.5083 816 4284372055
37.761467 1621.5083 816 4284504146
39.077065 1621.6678 817 4284504146
40.337616 1621.6678 817 4284437848
41.598164 1621.6678 817 4284503642
42.858715 1621.6678 817 4284897107
44.119267 1621.6678 817 4284831314
45.379818 1621.6678 817 4284570193
46.640366 1621.6678 817 4284833108
47.900917 1621.6678 817 4284767065
49.089909 1621.5083 816 4284767065
50.348625 1621.5083 816 4284504659
51.607338 1621.5083 816 4284504659
52.866055 1621.5083 816 4284504155
54.124771 1621.5083 816 4284504155
55.222019 1621.189 814 4284110431
56.477066 1621.189 814 4284242273
57.732109 1621.189 814 4284503894
58.900917 1621.0293 813 4286017133
60.154129 1621.0293 813 4288054905
61.317432 1620.8698 812 4291739313
62.385323 1620.5504 810 4290554553
63.445873 1620.2312 808 4287330696
64.499084 1619.9119 806 4287198300
65.642204 1619.7523 805 4288514159
66.583488 1619.2734 802 4289305238
68.018349 1619.5927 804 4294967034
69.049538 1619.2734 802 4294967295
70.177979 1619.1138 801 4294967295
71.409172 1619.1138 801 4294967295
71.917435 1608.2587 733 4294967295
73.023849 1608.2587 733 4294967295
74.130272 1608.2587 733 4294967295
75.236694 1608.2587 733 4294967295
76.469727 1608.4183 734 4294967295
77.834862 1608.7377 736 4294967295
79.207336 1609.0569 738 4294967295
80.455048 1609.2166 739 4294703355
81.572479 1609.2166 739 4294506233
82.689911 1609.2166 739 4294374392
83.807343 1609.2166 739 4294900735
1.1504587 1610.9395 757 4283914323
2.2935779 1610.6239 755 4284372828
3.4513762 1610.9395 757 4284307034
4.5871558 1610.6239 755 4284372055
5.7339449 1610.6239 755 4284372055
6.880734 1610.6239 755 4284175446
8.0532112 1610.9395 757 4284241239
8.9981651 1608.7302 743 4284044887
10.122936 1608.7302 743 4283913301
11.229358 1608.5725 742 4283781974
12.311927 1608.2568 740 4284044889
13.409174 1608.0991 739 4284569185
14.455046 1607.6257 736 4284306012
15.515596 1607.3101 734 4284108886
16.596331 1607.1523 733 4284306264
17.702753 1607.1523 733 4284306012
18.777981 1606.9945 732 4284306012
19.849541 1606.8367 731 4284372055
20.917431 1606.679 730 4284306262
21.981651 1606.5211 729 4284306264
23.080734 1606.5211 729 4284503644
24.179817 1606.5211 729 4284569437
25.278898 1606.5211 729 4284306264
30.033028 1619.6184 812 4284175442
31.330275 1619.7761 813 4284175442
32.631191 1619.934 814 4284567638
33.985321 1620.2495 816 4284633687
35.244038 1620.2495 816 4284372307
36.50275 1620.2495 816 4284372307
37.761467 1620.2495 816 4284372307
39.077065 1620.4073 817 4284438100
40.337616 1620.4073 817 4284437850
41.598164 1620.4073 817 4284437850
42.858715 1620.4073 817 4284438100
44.119267 1620.4073 817 4284503894
45.379818 1620.4073 817 4284896855
46.708256 1620.5652 818 4284962648
47.900917 1620.4073 817 4285027421
49.161469 1620.4073 817 4285027421
50.42202 1620.4073 817 4284767065
51.607338 1620.2495 816 4284767065
52.866055 1620.2495 816 4284635993
54.124771 1620.2495 816 4284635993
55.383488 1620.2495 816 4284043604
56.6422 1620.2495 816 4284109653
57.900917 1620.2495 816 4284176476
58.987156 1619.934 814 4286742402
60.242203 1619.934 814 4290023843
61.407341 1619.7761 813 4291339960
62.568806 1619.6184 812 4290159775
63.539448 1619.1449 809 4286607209
64.785324 1619.1449 809 4286474826
65.739449 1618.6715 806 4288777581
66.880737 1618.5138 805 4290159012
68.119263 1618.5138 805 4294967295
69.255043 1618.356 804 4294967295
70.491745 1618.356 804 4294967295
72.27523 1607.6257 736 4294967295
73.144951 1607.3101 734 4294967295
74.253212 1607.3101 734 4294967295
75.361465 1607.3101 734 4294967295
76.469727 1607.3101 734 4294967295
77.963303 1607.7834 737 4294967295
79.207336 1607.9413 738 4294967295
80.455048 1608.0991 739 4294505460
81.572479 1608.0991 739 4294637047
82.689911 1608.0991 739 4294504947
1.1504587 1609.7889 757 4282992969
2.3009174 1609.7889 757 4283453270
3.4513762 1609.7889 757 4283782235
4.6018348 1609.7889 757 4284108886
5.7522936 1609.7889 757 4284174679
6.9027524 1609.7889 757 4284306262
8.0532112 1609.7889 757 4284306262
9.2036695 1609.7889 757 4284109653
10.122936 1607.6055 743 4284109653
11.229358 1607.4496 742 4284109399
12.33211 1607.2936 741 4284109399
13.431192 1607.1376 740 4284043106
14.502752 1606.8257 738 4283911521
15.515596 1606.2018 734 4284109136
16.596331 1606.0459 733 4284175185
17.702753 1606.0459 733 4284174942
18.777981 1605.8899 732 4284174942
19.849541 1605.7339 731 4284109399
20.917431 1605.578 730 4284109399
22.018349 1605.578 730 4284108886
23.080734 1605.422 729 4284306264
24.179817 1605.422 729 4284175192
25.278898 1605.422 729 4284175192
26.377981 1605.422 729 4284043604
27.477064 1605.422 729 4284043604
32.631191 1618.679 814 4284306262
33.985321 1618.9908 816 4284306262
35.244038 1618.9908 816 4284306262
36.50275 1618.9908 816 4284306262
37.761467 1618.9908 816 4284372307
39.077065 1619.1467 817 4284635480
40.337616 1619.1467 817 4284437850
41.598164 1619.1467 817 4284372057
42.858715 1619.1467 817 4284306262
44.119267 1619.1467 817 4284372055
45.445873 1619.3027 818 4284437848
46.708256 1619.3027 818 4284437848
47.970642 1619.3027 818 4284437599
49.161469 1619.1467 817 4284371805
50.42202 1619.1467 817 4284437848
51.682568 1619.1467 817 4284832606
52.943119 1619.1467 817 4284570204
54.203671 1619.1467 817 4284372826
55.383488 1618.9908 816 4284436556
56.6422 1618.9908 816 4286146917
57.900917 1618.9908 816 4289041552
59.159634 1618.9908 816 4292001981
60.41835 1618.9908 816 4290816957
61.49725 1618.679 814 4288053651
62.660549 1618.5229 813 4286473561
63.820183 1618.3669 812 4286275925
64.880737 1618.0551 810 4286606426
66.128441 1618.0551 810 4288909181
67.376144 1618.0551 810 4290489523
60.14679 1604.9541 726 4294967295
61.240368 1604.9541 726 4294967295
63.427525 1604.9541 726 4294967295
68.14312 1605.422 729 4294967295
69.242203 1605.422 729 4294967295
70.576149 1605.7339 731 4294967295
72.27523 1606.5138 736 4294967295
73.387154 1606.5138 736 4294967295
74.253212 1606.2018 734 4294967295
75.611008 1606.5138 736 4294967295
76.849541 1606.6697 737 4294967295
78.091743 1606.8257 738 4294967295
79.598167 1607.2936 741 4294966782
80.455048 1606.9817 739 4294636534
81.572479 1606.9817 739 4294966270
83.097244 1607.4496 742 4294768633
2.3009174 1608.6385 757 4283256670
3.4513762 1608.6385 757 4283125084
4.5871558 1608.3303 755 4283911506
5.7522936 1608.6385 757 4284174679
6.9027524 1608.6385 757 4284174679
8.0532112 1608.6385 757 4284174679
9.2036695 1608.6385 757 4284174933
10.139449 1606.6349 744 4284372055
11.247706 1606.4807 743 4284174933
12.352294 1606.3267 742 4284109140
13.431192 1606.0183 740 4283911254
14.526606 1605.8643 739 4284108634
15.592661 1605.5559 737 4284174933
16.6789 1605.4019 736 4284174933
17.732111 1605.0936 734 4284109147
18.809174 1604.9395 733 4284109147
19.915596 1604.9395 733 4284109399
20.987156 1604.7853 732 4284109399
22.091743 1604.7853 732 4284043606
23.119267 1604.4771 730 4284175192
24.220184 1604.4771 730 4284109653
25.3211 1604.4771 730 4284109653
26.377981 1604.323 729 4283583053
27.477064 1604.323 729 4284043604
28.576147 1604.323 729 4284109653
33.985321 1617.7321 816 4284241239
35.244038 1617.7321 816 4284372307
36.50275 1617.7321 816 4284372307
37.816513 1617.8862 817 4283846733
39.077065 1617.8862 817 4284241491
40.337616 1617.8862 817 4284241491
41.598164 1617.8862 817 4284109649
42.858715 1617.8862 817 4284109136
44.119267 1617.8862 817 4284503894
45.445873 1618.0404 818 4284373078
46.708256 1618.0404 818 4284109649
47.970642 1618.0404 818 4284175446
49.161469 1617.8862 817 4284241239
50.42202 1617.8862 817 4284043343
51.682568 1617.8862 817 4284372307
52.943119 1617.8862 817 4284044108
54.203671 1617.8862 817 4284373330
55.383488 1617.7321 816 4284766309
56.6422 1617.7321 816 4287793044
57.900917 1617.7321 816 4290880433
59.159634 1617.7321 816 4291143862
60.41835 1617.7321 816 4290290861
61.49725 1617.4238 814 4286540660
62.660549 1617.2698 813 4285685310
63.820183 1617.1156 812 4286474826
64.880737 1616.8074 810 4287065430
66.128441 1616.8074 810 4289433978
59.152294 1604.0146 727 4291015867
60.14679 1603.8606 726 4294967295
61.240368 1603.8606 726 4294967295
62.333946 1603.8606 726 4294967295
63.427525 1603.8606 726 4294967295
64.629356 1604.0146 727 4294967295
65.72477 1604.0146 727 4294967295
66.932114 1604.1688 728 4294967295
68.14312 1604.323 729 4294967295
69.357796 1604.4771 730 4294967295
70.458717 1604.4771 730 4294967295
72.036697 1605.0936 734 4294967295
73.387154 1605.4019 736 4294966783
74.499084 1605.4019 736 4294967039
75.611008 1605.4019 736 4294966013
76.976151 1605.7101 738 4294966270
78.605507 1606.3267 742 4294966526
79.728439 1606.3267 742 4294966526
80.851379 1606.3267 742 4294833912
81.974312 1606.3267 742 4294966270
83.097244 1606.3267 742 4294966269
2.3009174 1607.488 757 4287529606
3.4513762 1607.488 757 4283910991
4.5871558 1607.1835 755 4283516747
5.7522936 1607.488 757 4283516747
6.880734 1607.1835 755 4283648848
8.0532112 1607.488 757 4283846484
9.1743116 1607.1835 755 4284108886
10.321101 1607.1835 755 4284108886
11.247706 1605.356 743 4284043343
12.311927 1604.899 740 4283977549
13.431192 1604.899 740 4284043093
14.526606 1604.7468 739 4284174679
15.618349 1604.5945 738 4284175442
16.706423 1604.4421 737 4284109649
17.790825 1604.2899 736 4284109653
18.840366 1603.9854 734 4284043604
19.915596 1603.833 733 4284043604
21.022018 1603.833 733 4284241239
22.055046 1603.5284 731 4283912275
23.119267 1603.3761 730 4284043604
24.220184 1603.3761 730 4284175185
25.3211 1603.3761 730 4283977549
26.377981 1603.2239 729 4283780434
27.477064 1603.2239 729 4284109399
28.576147 1603.2239 729 4284372055
29.67523 1603.2239 729 4284372055
35.244038 1616.4734 816 4284306514
36.50275 1616.4734 816 4284175185
37.816513 1616.6257 817 4284109901
39.077065 1616.6257 817 4283912779
40.396332 1616.778 818 4284110405
41.658714 1616.778 818 4284044612
42.858715 1616.6257 817 4284109649
44.119267 1616.6257 817 4285096544
45.57798 1617.0825 820 4284504146
46.844036 1617.0825 820 4284306510
47.970642 1616.778 818 4283912275
49.161469 1616.6257 817 4284175446
50.42202 1616.6257 817 4284436304
51.682568 1616.6257 817 4284107339
52.943119 1616.6257 817 4286012756
54.203671 1616.6257 817 4290091922
55.464222 1616.6257 817 4290160047
56.6422 1616.4734 816 4291607493
57.900917 1616.4734 816 4289435568
59.159634 1616.4734 816 4286409090
60.41835 1616.4734 816 4286408529
61.49725 1616.1688 814 4286606164
62.660549 1616.0165 813 4286607698
63.820183 1615.8643 812 4287265371
56.866055 1602.767 726 4287002202
57.959633 1602.767 726 4290226059
59.152294 1602.9193 727 4291281606
60.247707 1602.9193 727 4294967295
61.445873 1603.0715 728 4294967295
62.438534 1602.9193 727 4294967295
63.640366 1603.0715 728 4294967295
64.737617 1603.0715 728 4294967295
65.834862 1603.0715 728 4294967295
67.044037 1603.2239 729 4294967295
68.14312 1603.2239 729 4294967295
69.357796 1603.3761 730 4294967295
70.458717 1603.3761 730 4294967295
72.27523 1604.2899 736 4294967295
73.508255 1604.4421 737 4294967295
74.622017 1604.4421 737 4294967295
75.86055 1604.5945 738 4294967035
77.102753 1604.7468 739 4294967293
78.605507 1605.2036 742 4294967295
79.728439 1605.2036 742 4294967295
80.851379 1605.2036 742 4294967295
81.974312 1605.2036 742 4294967295
83.097244 1605.2036 742 4294966783
2.3009174 1606.3376 757 4289896870
3.4513762 1606.3376 757 4287199358
4.5871558 1606.0367 755 4284176730
5.7339449 1606.0367 755 4283650385
6.880734 1606.0367 755 4283452502
8.014679 1605.8862 754 4283452502
9.1596327 1605.8862 754 4283516747
10.304587 1605.8862 754 4283977297
11.247706 1604.2312 743 4283977549
12.372478 1604.2312 743 4283977549
13.475229 1604.0807 742 4283912277
14.550459 1603.7798 740 4284043606
15.644036 1603.6294 739 4284043606
16.733946 1603.4789 738 4284043606
17.820183 1603.3285 737 4284043606
18.840366 1602.8771 734 4284043606
19.948624 1602.8771 734 4283781974
21.022018 1602.7266 733 4283979096
22.091743 1602.5762 732 4284043604
23.119267 1602.2753 730 4284241239
24.220184 1602.2753 730 4284109649
25.3211 1602.2753 730 4284109649
26.377981 1602.1248 729 4284043604
27.477064 1602.1248 729 4284043604
28.576147 1602.1248 729 4284175185
29.625689 1601.9744 728 4284438100
30.722937 1601.9744 728 4284109136
31.820183 1601.9744 728 4284109136
37.816513 1615.3651 817 4283716431
39.077065 1615.3651 817 4283650381
40.337616 1615.3651 817 4283782476
41.658714 1615.5156 818 4283782476
37.244038 1601.8239 727 4284109136
38.339451 1601.8239 727 4284372307
39.434864 1601.8239 727 4284504144
40.530273 1601.8239 727 4284109642
41.625687 1601.8239 727 4283452981
42.64954 1601.6733 726 4283847483
43.816513 1601.8239 727 4284830560
44.911926 1601.8239 727 4285949041
52.943119 1615.3651 817 4287984515
54.203671 1615.3651 817 4290681772
55.464222 1615.3651 817 4290422701
56.6422 1615.2147 816 4289896357
57.900917 1615.2147 816 4287662728
59.159634 1615.2147 816 4284702042
60.41835 1615.2147 816 4285158453
61.49725 1614.9138 814 4286934864
62.752293 1614.9138 814 4286870354
55.866055 1601.8239 727 4287133270
56.866055 1601.6733 726 4286937442
58.056881 1601.8239 727 4290490264
59.35046 1602.1248 729 4291873743
60.348625 1601.9744 728 4294967295
61.445873 1601.9744 728 4294967295
62.543118 1601.9744 728 4294967295
63.640366 1601.9744 728 4294966783
64.845871 1602.1248 729 4294967295
65.944954 1602.1248 729 4294967295
67.044037 1602.1248 729 4294967295
68.256882 1602.2753 730 4294967295
69.357796 1602.2753 730 4294967295
70.576149 1602.4257 731 4294967295
72.27523 1603.178 736 4294967295
73.508255 1603.3285 737 4294967295
74.622017 1603.3285 737 4294967295
75.86055 1603.4789 738 4294967039
77.482567 1604.0807 742 4294967295
78.733948 1604.2312 743 4294967295
79.858719 1604.2312 743 4294967295
80.98349 1604.2312 743 4294967295
82.108253 1604.2312 743 4294967295
83.233025 1604.2312 743 4294966783
3.4513762 1605.1871 757 4290224807
4.5871558 1604.8899 755 4289634953
5.7339449 1604.8899 755 4288450678
6.880734 1604.8899 755 4287200389
8.027523 1604.8899 755 4284831841
9.1596327 1604.7413 754 4283452752
10.304587 1604.7413 754 4283321423
11.266055 1603.255 744 4283123787
12.39266 1603.255 744 4283255374
13.475229 1602.9578 742 4283451726
14.574312 1602.8092 741 4283451726
15.644036 1602.512 739 4283714645
16.733946 1602.3633 738 4283780438
17.820183 1602.2147 737 4283846484
18.902752 1602.066 736 4284043606
19.948624 1601.7688 734 4284043606
21.056881 1601.7688 734 4283912277
22.128441 1601.6202 733 4284109653
23.157799 1601.323 731 4284109653
24.220184 1601.1743 730 4284109901
25.3211 1601.1743 730 4283846985
26.422018 1601.1743 730 4283846481
27.477064 1601.0256 729 4283846481
28.576147 1601.0256 729 4283912008
29.67523 1601.0256 729 4284043595
30.722937 1600.8771 728 4284043343
31.820183 1600.8771 728 4283977549
32.862385 1600.7284 727 4283584592
33.957798 1600.7284 727 4283518543
34.994495 1600.5798 726 4283649098
36.088074 1600.5798 726 4283649098
37.244038 1600.7284 727 4283582792
38.339451 1600.7284 727 4283516998
39.434864 1600.7284 727 4284041796
40.530273 1600.7284 727 4284897105
41.625687 1600.7284 727 4287331657
42.64954 1600.5798 726 4288976225
