# .PCD v0.7 - Point Cloud Data file format
VERSION 0.7
FIELDS x y z rgb
SIZE 4 4 4 4
TYPE F F F U
COUNT 1 1 1 1
WIDTH 1377
HEIGHT 1
VIEWPOINT 0 0 0 1 0 0 0
POINTS 1377
DATA ascii
13.849542 1583.5559 759 4285877256
14.979816 1583.4421 758 4286008842
16.055046 1583.101 755 4285351993
17.174313 1582.9872 754 4285418042
18.26055 1582.7596 752 4285484084
19.370642 1582.6459 751 4285352497
20.510092 1582.6459 751 4285417507
21.579817 1582.4183 749 4285549349
22.6789 1582.3046 748 4285155875
23.735781 1582.077 746 4285221668
24.825687 1581.9633 745 4285156640
25.911926 1581.8495 744 4285222433
26.994495 1581.7358 743 4285287726
28.119267 1581.7358 743 4285221933
29.196331 1581.6221 742 4285747212
30.319265 1581.6221 742 4285878798
31.390825 1581.5083 741 4286008101
32.458717 1581.3945 740 4286073895
33.57798 1581.3945 740 4286008855
34.640366 1581.2808 739 4286337564
35.757797 1581.2808 739 4286206237
36.875229 1581.2808 739 4286074395
37.930275 1581.167 738 4285682201
39.045872 1581.167 738 4285747994
40.161469 1581.167 738 4285747996
41.209175 1581.0532 737 4285879582
42.322937 1581.0532 737 4285879582
43.222019 1580.7119 734 4286142754
44.477066 1580.9395 736 4286011182
45.588989 1580.9395 736 4285945388
46.700916 1580.9395 736 4286077479
47.655045 1580.7119 734 4286077479
48.763302 1580.7119 734 4285881142
49.871559 1580.7119 734 4285683764
50.979816 1580.7119 734 4286209591
52.088074 1580.7119 734 4286406971
53.196331 1580.7119 734 4286603069
54.304588 1580.7119 734 4286866240
55.412846 1580.7119 734 4287589448
56.521099 1580.7119 734 4287983950
57.629356 1580.7119 734 4287394390
58.737614 1580.7119 734 4289565816
60.044037 1580.9395 736 4290880935
61.458717 1581.2808 739 4294631136
62.678898 1581.3945 740 4293647842
63.798164 1581.3945 740 4293844964
65.023849 1581.5083 741 4293912297
66.144951 1581.5083 741 4293846248
67.376144 1581.6221 742 4293582562
68.499084 1581.6221 742 4293582562
69.622017 1581.6221 742 4293516769
70.86055 1581.7358 743 4293516769
71.985321 1581.7358 743 4293253851
73.348625 1581.9633 745 4293385437
74.598167 1582.077 746 4293121757
76.220184 1582.5321 750 4293385186
77.482567 1582.6459 751 4293319904
78.875229 1582.8734 753 4293319904
80.018349 1582.8734 753 4292728285
81.161469 1582.8734 753 4292794078
12.715596 1582.5138 760 4285812522
13.87156 1582.5138 760 4285484574
14.979816 1582.2899 758 4286274090
16.106422 1582.178 757 4286339935
17.201836 1581.9541 755 4286339935
18.319265 1581.8422 754 4285879625
19.401834 1581.6184 752 4285748039
20.510092 1581.5065 751 4285681717
21.614679 1581.3945 750 4286010682
22.715597 1581.2826 749 4285814584
23.812843 1581.1707 748 4286143292
24.866055 1580.9468 746 4285749813
25.911926 1580.7229 744 4286078521
27.038532 1580.7229 744 4286144078
28.119267 1580.611 743 4285091390
29.244038 1580.611 743 4285156104
30.319265 1580.499 742 4285485326
31.442202 1580.499 742 4285484336
32.511925 1580.3872 741 4285418542
33.57798 1580.2753 740 4285746962
34.697247 1580.2753 740 4285812755
35.816513 1580.2753 740 4285812757
36.875229 1580.1633 739 4285746964
37.992661 1580.1633 739 4285616407
39.045872 1580.0514 738 4285747994
40.161469 1580.0514 738 4285813276
41.277065 1580.0514 738 4285813276
42.322937 1579.9395 737 4286010398
43.436699 1579.9395 737 4286470949
44.550457 1579.9395 737 4286011182
45.664219 1579.9395 737 4285945388
46.700916 1579.8275 736 4286011686
47.812843 1579.8275 736 4286143272
48.92477 1579.8275 736 4285946422
49.871559 1579.6036 734 4286012215
50.979816 1579.6036 734 4286209339
52.088074 1579.6036 734 4286867270
53.196331 1579.6036 734 4286801468
54.304588 1579.6036 734 4287393348
55.412846 1579.6036 734 4286999885
56.708256 1579.8275 736 4287131727
57.820183 1579.8275 736 4287198033
59.029358 1579.9395 737 4290092926
60.242203 1580.0514 738 4291079852
61.660549 1580.3872 741 4294632418
62.781651 1580.3872 741 4293779941
63.902752 1580.3872 741 4293516769
65.130272 1580.499 742 4293385186
66.361465 1580.611 743 4293319392
67.486237 1580.611 743 4293516769
68.611008 1580.611 743 4293516769
69.735779 1580.611 743 4293516769
70.86055 1580.611 743 4293714148
72.102753 1580.7229 744 4293714400
73.467888 1580.9468 746 4293977316
74.84037 1581.1707 748 4293648355
75.974312 1581.1707 748 4293714148
77.85688 1581.8422 754 4293385184
79.001831 1581.8422 754 4293516769
80.14679 1581.8422 754 4292990689
81.29174 1581.8422 754 4293188067
12.73578 1581.4679 761 4285352997
13.87156 1581.3578 760 4285024788
15.00367 1581.2477 759 4286011684
16.132111 1581.1376 758 4285880920
17.201836 1580.8074 755 4285617748
18.319265 1580.6973 754 4285355077
19.433027 1580.5872 753 4285157699
20.543119 1580.4771 752 4285550894
21.649542 1580.3669 751 4286011445
22.715597 1580.1467 749 4285749572
23.851376 1580.1467 749 4285749572
24.866055 1579.8165 746 4285290555
25.954128 1579.7064 745 4285290555
27.038532 1579.5963 744 4285749833
28.165138 1579.5963 744 4284960318
29.244038 1579.4862 743 4284960281
30.368807 1579.4862 743 4284960281
31.442202 1579.3761 742 4285025824
32.511925 1579.2661 741 4285222946
33.633026 1579.2661 741 4285616405
34.697247 1579.156 740 4285485076
35.816513 1579.156 740 4285288199
36.93578 1579.156 740 4285616907
37.992661 1579.0459 739 4285878802
39.110092 1579.0459 739 4285878802
40.227524 1579.0459 739 4285944605
41.277065 1578.9358 738 4285944605
42.392662 1578.9358 738 4286010398
43.508255 1578.9358 738 4286208034
44.623852 1578.9358 738 4285879593
45.739449 1578.9358 738 4285945386
46.855045 1578.9358 738 4286077729
47.891743 1578.8257 737 4286274851
49.005505 1578.8257 737 4286012467
50.119267 1578.8257 737 4285946674
51.233028 1578.8257 737 4286208826
52.260551 1578.7156 736 4286800964
53.372478 1578.7156 736 4286604086
54.484406 1578.7156 736 4287130430
55.596329 1578.7156 736 4286671689
56.801834 1578.8257 737 4287132240
57.915596 1578.8257 737 4287068251
59.126606 1578.9358 738 4290094472
60.341286 1579.0459 739 4291409847
61.660549 1579.2661 741 4294436324
62.781651 1579.2661 741 4293845988
63.902752 1579.2661 741 4293385437
65.130272 1579.3761 742 4293318620
66.361465 1579.4862 743 4293516256
67.486237 1579.4862 743 4293582301
68.611008 1579.4862 743 4293582301
69.963303 1579.7064 745 4293056988
71.091743 1579.7064 745 4293385697
72.220184 1579.7064 745 4293648353
73.706421 1580.0367 748 4293845988
74.84037 1580.0367 748 4293647842
76.834862 1580.8074 755 4293582049
77.981651 1580.8074 755 4293319390
79.128441 1580.8074 755 4293319390
80.27523 1580.8074 755 4293187552
81.682571 1581.0275 757 4293253345
83.229355 1581.3578 760 4293121757
84.519264 1581.4679 761 4293187806
13.893578 1580.3101 761 4284893722
15.027523 1580.2018 760 4286011947
16.183487 1580.2018 760 4285815115
17.284403 1579.9854 758 4285551687
18.407339 1579.8771 757 4285222715
19.46422 1579.5522 754 4285025079
20.609175 1579.5522 754 4285156640
21.684404 1579.3358 752 4285945900
22.78899 1579.2275 751 4285881158
23.889908 1579.1193 750 4285617730
24.946789 1578.9027 748 4285487164
25.99633 1578.6863 746 4285355577
27.126606 1578.6863 746 4285617973
28.21101 1578.578 745 4285157422
29.291742 1578.4697 744 4285288478
30.418348 1578.4697 744 4285288478
31.493578 1578.3615 743 4285288478
32.618347 1578.3615 743 4285485601
33.688072 1578.2532 742 4285748244
34.811008 1578.2532 742 4285814293
35.933945 1578.2532 742 4285484574
36.99633 1578.1449 741 4285747746
38.055046 1578.0367 740 4285813257
39.110092 1577.9285 739 4285944844
40.227524 1577.9285 739 4285944605
41.344955 1577.9285 739 4286010398
42.462387 1577.9285 739 4286075945
43.579815 1577.9285 739 4286141738
44.697247 1577.9285 739 4286141998
45.814678 1577.9285 739 4286141998
46.93211 1577.9285 739 4286076443
47.970642 1577.8202 738 4286405408
49.086239 1577.8202 738 4286077490
50.201836 1577.8202 738 4286077490
51.317432 1577.8202 738 4286274619
52.34679 1577.7119 737 4287064135
53.460552 1577.7119 737 4286866490
54.57431 1577.7119 737 4287261248
55.688072 1577.7119 737 4286540360
56.988991 1577.9285 739 4287263826
58.106422 1577.9285 739 4286936672
59.41835 1578.1449 741 4290357908
60.539448 1578.1449 741 4291739070
61.761467 1578.2532 742 4294371047
62.884403 1578.2532 742 4293780195
64.007339 1578.2532 742 4293319644
65.236694 1578.3615 743 4293516767
66.469727 1578.4697 744 4293582560
67.596329 1578.4697 744 4293582299
68.722939 1578.4697 744 4294042850
69.963303 1578.578 745 4293385184
71.207336 1578.6863 746 4293385184
72.337616 1578.6863 746 4293516769
73.467888 1578.6863 746 4293582562
75.688072 1579.6605 755 4293582049
76.834862 1579.6605 755 4293582049
77.981651 1579.6605 755 4293582562
79.381653 1579.8771 757 4293648355
80.532112 1579.8771 757 4293713896
81.812843 1579.9854 758 4293582310
83.229355 1580.2018 760 4293385184
84.385323 1580.2018 760 4293385184
12.79633 1579.4716 764 4284894747
13.915596 1579.2587 762 4284631325
15.051376 1579.1523 761 4285881392
16.209175 1579.1523 761 4286209871
17.339449 1579.0459 760 4285617734
18.436697 1578.833 758 4285418290
19.557798 1578.7266 757 4285418290
20.642202 1578.5138 755 4285220898
21.719267 1578.3009 753 4285813035
22.825687 1578.1945 752 4285815113
23.92844 1578.0881 751 4285683527
24.987156 1577.8752 749 4285421371
26.080734 1577.7688 748 4285487164
27.126606 1577.5559 746 4285420861
28.25688 1577.5559 746 4285157433
29.339449 1577.4496 745 4285419281
30.418348 1577.3431 744 4285485330
31.544954 1577.3431 744 4285419281
32.618347 1577.2367 743 4285616659
33.743118 1577.2367 743 4285747994
34.811008 1577.1302 742 4285485078
35.933945 1577.1302 742 4285287193
37.056881 1577.1302 742 4285747744
38.117432 1577.0238 741 4285748244
39.174313 1576.9175 740 4285814293
40.293579 1576.9175 740 4285879582
41.412846 1576.9175 740 4285945375
42.532108 1576.9175 740 4285945386
43.651375 1576.9175 740 4286011436
44.770641 1576.9175 740 4286207541
45.814678 1576.811 739 4286075954
46.93211 1576.811 739 4286535459
48.049541 1576.811 739 4286798887
49.166973 1576.811 739 4286012467
50.284405 1576.811 739 4285814832
51.401836 1576.811 739 4286537789
52.433029 1576.7046 738 4287064133
53.548622 1576.7046 738 4286866490
54.754128 1576.811 739 4287327041
56.055046 1577.0238 741 4286475078
57.176147 1577.0238 741 4286935629
58.297249 1577.0238 741 4286541664
59.515594 1577.1302 742 4290686623
60.638531 1577.1302 742 4291937221
61.761467 1577.1302 742 4294108391
62.884403 1577.1302 742 4293517539
64.111923 1577.2367 743 4293254110
65.343117 1577.3431 744 4293582560
66.57798 1577.4496 745 4293648353
67.706421 1577.4496 745 4293648094
68.834862 1577.4496 745 4293582301
70.077065 1577.5559 746 4293516769
71.43853 1577.7688 748 4293385184
72.572479 1577.7688 748 4293318874
73.706421 1577.7688 748 4293647840
75.688072 1578.5138 755 4293647842
76.834862 1578.5138 755 4293647842
78.231194 1578.7266 757 4293582562
79.381653 1578.7266 757 4293582562
80.532112 1578.7266 757 4293779943
81.682571 1578.7266 757 4293648357
13.959633 1578.3082 764 4285221931
15.122936 1578.3082 764 4286405949
16.234863 1578.0991 762 4286144580
17.366972 1577.9945 761 4285420857
18.466055 1577.7853 759 4285485369
19.557798 1577.5762 757 4285485369
20.642202 1577.3669 755 4285155373
21.719267 1577.1578 753 4285089580
22.825687 1577.0532 752 4285353279
23.92844 1576.9486 751 4285748037
25.027523 1576.844 750 4285617973
26.122936 1576.7395 749 4285617973
27.21468 1576.6349 748 4285813830
28.348623 1576.6349 748 4285353279
29.387156 1576.4257 746 4285288199
30.46789 1576.321 745 4285288199
31.596331 1576.321 745 4285418499
32.671558 1576.2166 744 4285616135
33.798164 1576.2166 744 4285549597
34.867889 1576.1119 743 4285483804
35.992661 1576.1119 743 4285549347
37.117432 1576.1119 743 4286075691
38.179817 1576.0073 742 4285944605
39.238533 1575.9027 741 4285944605
40.42569 1576.0073 742 4286009896
41.548622 1576.0073 742 4286075945
42.671558 1576.0073 742 4285945386
43.722935 1575.9027 741 4286011436
44.844036 1575.9027 741 4286141748
45.965137 1575.9027 741 4286141748
47.086239 1575.9027 741 4286337836
48.128441 1575.7982 740 4286600752
49.247707 1575.7982 740 4286209076
50.366974 1575.7982 740 4286209076
51.570641 1575.9027 741 4286538291
52.691742 1575.9027 741 4286538291
53.812843 1575.9027 741 4286602817
54.933945 1575.9027 741 4287063368
56.14679 1576.0073 742 4286474565
57.269726 1576.0073 742 4287329874
58.392662 1576.0073 742 4287264873
59.612843 1576.1119 743 4291212454
60.737614 1576.1119 743 4292397518
61.862385 1576.1119 743 4294305515
62.987156 1576.1119 743 4293977318
64.111923 1576.1119 743 4293648353
65.449539 1576.321 745 4293516769
66.57798 1576.321 745 4293648355
67.706421 1576.321 745 4293582047
68.834862 1576.321 745 4293516253
70.077065 1576.4257 746 4293385184
71.43853 1576.6349 748 4293385184
72.572479 1576.6349 748 4293385184
73.706421 1576.6349 748 4293714148
75.930275 1577.5762 757 4293319392
77.080734 1577.5762 757 4293187806
78.355965 1577.6808 758 4293188317
79.508255 1577.6808 758 4293451746
80.660553 1577.6808 758 4293648355
81.812843 1577.6808 758 4293516769
12.816514 1577.2477 765 4285222179
13.981651 1577.2477 765 4285024550
15.146789 1577.2477 765 4286208824
16.286238 1577.1449 764 4286275666
17.449541 1577.1449 764 4285617480
18.524771 1576.8367 761 4285813046
19.620184 1576.6312 759 4285484338
20.708258 1576.4257 757 4285547289
21.754128 1576.1174 754 4285810205
22.862385 1576.0146 753 4285023285
23.966972 1575.9119 752 4285878593
25.06789 1575.8092 751 4285748539
26.165138 1575.7064 750 4285945918
27.258715 1575.6036 749 4285879625
28.394495 1575.6036 749 4285681989
29.482569 1575.501 748 4285353488
30.517431 1575.2954 746 4285419281
31.647707 1575.2954 746 4285418249
32.72477 1575.1926 745 4285747214
33.85321 1575.1926 745 4285549597
34.92477 1575.09 744 4285549597
36.051376 1575.09 744 4285747481
37.177982 1575.09 744 4285747481
38.242203 1574.9872 743 4285418499
39.366974 1574.9872 743 4286010893
40.557796 1575.09 744 4285944605
41.616512 1574.9872 743 4286142240
42.741283 1574.9872 743 4286077479
43.866055 1574.9872 743 4286077479
44.917431 1574.8844 742 4286207791
46.040367 1574.8844 742 4286141998
47.163303 1574.8844 742 4286208031
48.20734 1574.7816 741 4286536996
49.328442 1574.7816 741 4286340396
50.532108 1574.8844 742 4286406189
51.655045 1574.8844 742 4286471985
52.86422 1574.9872 743 4286471985
53.900917 1574.8844 742 4286274619
55.113762 1574.9872 743 4286800964
56.238533 1574.9872 743 4286735432
57.363304 1574.9872 743 4287985498
58.488075 1574.9872 743 4288183673
59.710091 1575.09 744 4292789182
60.836697 1575.09 744 4292530905
61.963303 1575.09 744 4293912558
62.987156 1574.9872 743 4293977318
64.216515 1575.09 744 4293648353
65.449539 1575.1926 745 4293450206
66.686241 1575.2954 746 4293779171
67.706421 1575.1926 745 4293779425
68.834862 1575.1926 745 4293647840
70.077065 1575.2954 746 4293319906
71.207336 1575.2954 746 4293254112
73.394493 1576.2202 755 4293189088
75.137611 1576.7339 760 4293254881
76.172478 1576.6312 759 4293056736
77.326607 1576.6312 759 4293056736
78.480736 1576.6312 759 4293188317
79.634865 1576.6312 759 4293319904
80.788994 1576.6312 759 4293386212
81.943123 1576.6312 759 4293254883
12.836698 1576.1835 766 4285156375
13.981651 1576.0825 765 4285155104
15.146789 1576.0825 765 4286602551
16.311926 1576.0825 765 4286341207
17.477064 1576.0825 765 4285551435
18.612844 1575.9817 764 4285352747
19.68257 1575.679 761 4285155625
20.741285 1575.3761 758 4285154832
21.78899 1575.0734 755 4286338850
22.899082 1574.9725 754 4285879625
24.005505 1574.8716 753 4285681989
25.06789 1574.6697 751 4285814080
26.165138 1574.5688 750 4286011715
27.302752 1574.5688 750 4286208590
28.394495 1574.4679 749 4285550660
29.530275 1574.4679 749 4285419281
30.616514 1574.3669 748 4285485330
31.750458 1574.3669 748 4285746731
32.777981 1574.1652 746 4286075439
33.908257 1574.1652 746 4285746964
35.038532 1574.1652 746 4285746964
36.051376 1573.9633 744 4285746964
37.177982 1573.9633 744 4285878550
38.304588 1573.9633 744 4286206737
39.431194 1573.9633 744 4286864410
40.557796 1573.9633 744 4286142488
41.684402 1573.9633 744 4286208281
42.811008 1573.9633 744 4286142502
43.937614 1573.9633 744 4286274088
44.990826 1573.8624 743 4286208295
46.115597 1573.8624 743 4286076708
47.163303 1573.7615 742 4286403357
48.28624 1573.7615 742 4286929957
49.409176 1573.7615 742 4286602801
50.532108 1573.7615 742 4286602801
51.739449 1573.8624 743 4286471481
52.86422 1573.8624 743 4286405687
53.988991 1573.8624 743 4286274619
55.113762 1573.8624 743 4287064135
56.238533 1573.8624 743 4286736465
57.363304 1573.8624 743 4288118118
58.488075 1573.8624 743 4287986811
59.807339 1574.0642 745 4292987079
60.93578 1574.0642 745 4293055199
61.963303 1573.9633 744 4294436852
63.089909 1573.9633 744 4294109158
64.321098 1574.0642 745 4293648607
65.555962 1574.1652 746 4293780454
66.686241 1574.1652 746 4294241005
67.816513 1574.1652 746 4293845986
68.834862 1574.0642 745 4293977316
70.077065 1574.1652 746 4293385701
72.247704 1575.0734 755 4293319652
73.394493 1575.0734 755 4293319904
75.137611 1575.578 760 4293319904
76.293579 1575.578 760 4293253858
77.449539 1575.578 760 4293648616
78.605507 1575.578 760 4293254112
79.888077 1575.679 761 4293188319
81.045868 1575.679 761 4293582308
83.897247 1576.9908 774 4293977066
85.343117 1577.1926 776 4293582560
86.528442 1577.1926 776 4293714146
12.836698 1575.0165 766 4285091617
14.00367 1575.0165 766 4285417507
15.146789 1574.9175 765 4286404402
16.311926 1574.9175 765 4286208590
17.477064 1574.9175 765 4285748039
18.612844 1574.8184 764 4285614638
19.713762 1574.6202 762 4285680432
20.774311 1574.323 759 4285286178
21.858715 1574.1248 757 4286075693
22.93578 1573.9266 755 4285749320
24.044037 1573.8275 754 4285617734
25.148624 1573.7284 753 4285617723
26.20734 1573.5303 751 4285880638
27.346788 1573.5303 751 4285879875
28.440367 1573.4312 750 4285550910
29.577982 1573.4312 750 4285616405
30.666056 1573.3322 749 4285485076
31.801834 1573.3322 749 4286074395
32.937614 1573.3322 749 4286337566
34.073395 1573.3322 749 4285747481
35.152294 1573.233 748 4285484308
36.168808 1573.0349 746 4285811463
37.238533 1572.9358 745 4286403600
38.366974 1572.9358 745 4286403348
39.495415 1572.9358 745 4286403348
40.623852 1572.9358 745 4286076443
41.752293 1572.9358 745 4286208285
42.880733 1572.9358 745 4286142502
44.009174 1572.9358 745 4286208295
45.06422 1572.8367 744 4286208295
46.115597 1572.7377 743 4286076708
47.240368 1572.7377 743 4285944605
48.365139 1572.7377 743 4286602791
49.48991 1572.7377 743 4286537005
50.697247 1572.8367 744 4286537005
51.908257 1572.9358 745 4286471481
52.950459 1572.8367 744 4286405687
53.988991 1572.7377 743 4286011965
55.203671 1572.8367 744 4286933067
56.330276 1572.8367 744 4286671185
57.456882 1572.8367 744 4287921509
58.678898 1572.9358 745 4287921531
59.904587 1573.0349 746 4293119179
60.93578 1572.9358 745 4293317855
62.06422 1572.9358 745 4294699508
63.295414 1573.0349 746 4294306791
64.634865 1573.233 748 4294043363
65.875229 1573.3322 749 4293780454
66.902756 1573.233 748 4293780454
68.036697 1573.233 748 4293714659
69.170639 1573.233 748 4293648866
71.328438 1574.1248 757 4293319906
72.478897 1574.1248 757 4293254112
73.746788 1574.2239 758 4293122011
74.899086 1574.2239 758 4293187804
76.293579 1574.422 760 4293121246
77.572479 1574.5211 761 4293384417
78.730278 1574.5211 761 4293253597
80.014679 1574.6202 762 4293319390
81.174309 1574.6202 762 4293516256
83.897247 1575.8092 774 4293582049
85.078896 1575.8092 774 4293450206
86.528442 1576.0073 776 4293450206
12.836698 1573.8495 766 4285615905
14.00367 1573.8495 766 4285221670
15.170642 1573.8495 766 4286076979
16.337614 1573.8495 766 4286011461
17.477064 1573.7523 765 4285748289
18.642202 1573.7523 765 4286075971
19.776146 1573.655 764 4286404936
20.807339 1573.2661 760 4285681717
21.858715 1572.9744 757 4285550131
23.009174 1572.9744 757 4285748527
24.082569 1572.7798 755 4286011443
25.188992 1572.6826 754 4285946683
26.291742 1572.5853 753 4285880890
27.390825 1572.488 752 4285748527
28.53211 1572.488 752 4285550892
29.625689 1572.3909 751 4285747481
30.765137 1572.3909 751 4285615894
31.85321 1572.2936 750 4286008340
32.990826 1572.2936 750 4286205462
34.128441 1572.2936 750 4285878297
35.209175 1572.1963 749 4285549588
36.344955 1572.1963 749 4286206737
37.299084 1571.9045 746 4286535701
38.429359 1571.9045 746 4286010904
39.559631 1571.9045 746 4285944855
40.689907 1571.9045 746 4285945627
41.752293 1571.8074 745 4286076956
42.880733 1571.8074 745 4286207780
44.080734 1571.9045 746 4286141986
45.21101 1571.9045 746 4286469414
46.341286 1571.9045 746 4286469414
47.471561 1571.9045 746 4286534961
48.601833 1571.9045 746 4286732340
49.732109 1571.9045 746 4286667564
50.862385 1571.9045 746 4286733357
51.992661 1571.9045 746 4286208826
53.122936 1571.9045 746 4286274619
54.165138 1571.8074 745 4286078281
55.383488 1571.9045 746 4286736467
56.697247 1572.0991 748 4286474828
57.644035 1571.9045 746 4288382825
59.060551 1572.1963 749 4288579462
60.099083 1572.0991 748 4293316814
61.233028 1572.0991 748 4294107620
62.366974 1572.0991 748 4294897393
63.809174 1572.3909 751 4294371812
65.053207 1572.488 752 4294108897
66.194496 1572.488 752 4293714659
67.335777 1572.488 752 4293714659
68.587158 1572.5853 753 4293649120
70.177979 1572.9744 757 4293649120
71.328438 1572.9744 757 4293319390
72.478897 1572.9744 757 4293253597
73.746788 1573.0715 758 4293187806
75.137611 1573.2661 760 4293516515
76.41468 1573.3633 761 4293188319
77.695412 1573.4606 762 4293056734
78.855049 1573.4606 762 4293253597
80.267891 1573.655 764 4293648355
81.43119 1573.655 764 4293450206
83.897247 1574.6276 774 4293450206
85.078896 1574.6276 774 4293384667
86.528442 1574.822 776 4293318874
12.836698 1572.6826 766 4285220636
14.00367 1572.6826 766 4285154853
15.170642 1572.6826 766 4285944625
16.337614 1572.6826 766 4285618250
17.477064 1572.5872 765 4285420871
18.642202 1572.5872 765 4286010432
19.776146 1572.4917 764 4286010432
20.840366 1572.2056 761 4286009394
21.893578 1571.9193 758 4285680686
23.009174 1571.8239 757 4285222183
24.082569 1571.6331 755 4285682734
25.188992 1571.5376 754 4285618474
26.291742 1571.4423 753 4285552681
27.434862 1571.4423 753 4285288228
28.53211 1571.3468 752 4285288228
29.625689 1571.2513 751 4285746962
30.765137 1571.2513 751 4285746962
31.904587 1571.2513 751 4285813007
33.044037 1571.2513 751 4285813007
34.183487 1571.2513 751 4285813007
35.266056 1571.156 750 4285878800
36.403671 1571.156 750 4286076434
37.420185 1570.9651 748 4286207763
38.554127 1570.9651 748 4285748244
39.559631 1570.7743 746 4285748244
40.689907 1570.7743 746 4285945627
41.820183 1570.7743 746 4286076956
42.950459 1570.7743 746 4286338084
44.223854 1570.9651 748 4286338084
45.3578 1570.9651 748 4286468900
46.491745 1570.9651 748 4286534950
47.625687 1570.9651 748 4286666034
48.759632 1570.9651 748 4286929205
49.893578 1570.9651 748 4286733103
51.027523 1570.9651 748 4286733103
52.161469 1570.9651 748 4286011965
53.295414 1570.9651 748 4286340930
54.429359 1570.9651 748 4286211918
55.65321 1571.0605 749 4286409553
56.880733 1571.156 750 4286474828
58.018349 1571.156 750 4288317032
59.251377 1571.2513 751 4288580481
60.390827 1571.2513 751 4293317577
61.530273 1571.2513 751 4294107622
62.669724 1571.2513 751 4294041829
63.809174 1571.2513 751 4293648092
65.053207 1571.3468 752 4293648092
66.194496 1571.3468 752 4293056988
67.444038 1571.4423 753 4293254110
68.807343 1571.6331 755 4293582814
70.289909 1571.9193 758 4293582814
71.555962 1572.0146 759 4293253597
72.710091 1572.0146 759 4293187804
73.981651 1572.1101 760 4293122011
75.256882 1572.2056 761 4293253597
76.535782 1572.3009 762 4293254110
77.941284 1572.4917 764 4293188317
79.229355 1572.5872 765 4293253597
80.647705 1572.778 767 4293187804
82.201836 1573.0642 770 4293122011
83.897247 1573.4459 774 4293253597
85.078896 1573.4459 774 4293187804
86.528442 1573.6367 776 4293187804
12.836698 1571.5156 766 4285416212
14.00367 1571.5156 766 4284427300
15.170642 1571.5156 766 4282848012
16.337614 1571.5156 766 4283833362
17.504587 1571.5156 766 4284293913
18.642202 1571.422 765 4284557060
19.807339 1571.422 765 4284951818
20.939449 1571.3285 764 4284754957
22.033028 1571.1412 762 4285610266
23.045872 1570.767 758 4285353742
24.159634 1570.6733 757 4285287693
25.229359 1570.4862 755 4285287936
26.333944 1570.3927 754 4285419264
27.478899 1570.3927 754 4285615881
28.577982 1570.2991 753 4285418501
29.673395 1570.2056 752 4285418009
30.814678 1570.2056 752 4285549851
31.955963 1570.2056 752 4285615633
33.097248 1570.2056 752 4285812755
34.183487 1570.1119 751 4285878800
35.322937 1570.1119 751 4285878800
36.462387 1570.1119 751 4285813257
37.601833 1570.1119 751 4286010893
38.741283 1570.1119 751 4285748244
39.688072 1569.8312 748 4285814293
40.822018 1569.8312 748 4286076193
41.820183 1569.644 746 4286602537
42.950459 1569.644 746 4286468900
44.295414 1569.9248 749 4286534950
45.431194 1569.9248 749 4286665264
46.566971 1569.9248 749 4286796850
47.702751 1569.9248 749 4286469938
48.917431 1570.0183 750 4286667060
50.055046 1570.0183 750 4286667564
51.192661 1570.0183 750 4286733357
52.245872 1569.9248 749 4286208324
53.467892 1570.0183 750 4286800462
54.605503 1570.0183 750 4286474315
55.833027 1570.1119 751 4287000659
56.972477 1570.1119 751 4286672205
58.111927 1570.1119 751 4288317030
59.251377 1570.1119 751 4288778365
60.390827 1570.1119 751 4293383874
61.629356 1570.2056 752 4293910498
62.770641 1570.2056 752 4293712863
63.911926 1570.2056 752 4293647069
65.157799 1570.2991 753 4294107620
66.300919 1570.2991 753 4293253597
67.877068 1570.6733 757 4293253597
69.137611 1570.767 758 4293320157
70.401833 1570.8606 759 4293320157
71.669724 1570.9541 760 4293187804
72.825691 1570.9541 760 4293187804
74.099083 1571.0477 761 4293187804
75.614677 1571.3285 764 4293253597
76.777985 1571.3285 764 4293254110
78.064217 1571.422 765 4293254110
79.229355 1571.422 765 4293122011
80.774315 1571.7028 768 4293122011
82.458717 1572.077 772 4293121757
83.766975 1572.1707 773 4293319392
85.078896 1572.2642 774 4293055451
86.528442 1572.4514 776 4292923864
9.5853214 1571.9082 783 4284357120
12.836698 1570.3486 766 4284958228
14.00367 1570.3486 766 4284754955
15.194495 1570.4404 767 4283307520
16.363302 1570.4404 767 4284285952
17.504587 1570.3486 766 4284680448
18.67156 1570.3486 766 4284092928
19.838531 1570.3486 766 4284290304
20.972477 1570.2568 765 4284820998
22.137615 1570.2568 765 4286005271
23.192661 1569.9817 762 4285417759
24.275229 1569.7982 760 4284760085
25.310091 1569.5229 757 4284825349
26.376146 1569.3395 755 4285088265
27.522936 1569.3395 755 4285220382
28.623854 1569.2477 754 4285088796
29.768806 1569.2477 754 4285481746
30.913761 1569.2477 754 4286008090
32.007339 1569.156 753 4285942795
33.150459 1569.156 753 4286205966
34.238533 1569.0642 752 4285878800
35.379818 1569.0642 752 4285878800
36.521099 1569.0642 752 4286205964
37.662384 1569.0642 752 4286337807
38.741283 1568.9725 751 4286337818
39.880733 1568.9725 751 4286403611
40.954128 1568.8807 750 4286076193
42.091743 1568.8807 750 4286273829
43.229359 1568.8807 750 4286468900
44.366974 1568.8807 750 4286600743
45.504585 1568.8807 750 4286796850
46.6422 1568.8807 750 4286796850
47.779816 1568.8807 750 4286535463
48.917431 1568.8807 750 4286601256
50.055046 1568.8807 750 4286667310
51.192661 1568.8807 750 4286733103
52.330276 1568.8807 750 4286339129
53.467892 1568.8807 750 4287128645
54.693577 1568.9725 751 4286540108
55.833027 1568.9725 751 4286934866
57.06422 1569.0642 752 4286738255
58.205505 1569.0642 752 4288843374
59.34679 1569.0642 752 4289304972
60.488075 1569.0642 752 4293647310
61.728439 1569.156 753 4293911009
62.871559 1569.156 753 4293582301
64.014679 1569.156 753 4293646808
65.262383 1569.2477 754 4293712601
66.513763 1569.3395 755 4293055703
67.985321 1569.6146 758 4293384667
69.247704 1569.7064 759 4293254362
70.513763 1569.7982 760 4293057240
71.669724 1569.7982 760 4292859353
72.825691 1569.7982 760 4293056988
74.099083 1569.8899 761 4293253851
75.376144 1569.9817 762 4293122009
76.777985 1570.1652 764 4293122011
78.064217 1570.2568 765 4293122011
79.354126 1570.3486 766 4292858321
81.027519 1570.7156 770 4293187543
82.458717 1570.899 772 4293122011
83.766975 1570.9908 773 4293122011
85.078896 1571.0825 774 4292923862
86.260551 1571.0825 774 4293055705
7.211009 1570.8899 785 4284616469
8.3999996 1570.8 784 4284616469
9.5853214 1570.7101 783 4284224513
10.783486 1570.7101 783 4285935131
11.981651 1570.7101 783 4285352456
13.179816 1570.7101 783 4285418249
14.377981 1570.7101 783 4284889888
15.194495 1569.2716 767 4284495131
16.363302 1569.2716 767 4284951053
17.53211 1569.2716 767 4283832576
18.67156 1569.1816 766 4284093184
19.838531 1569.1816 766 4284027392
20.972477 1569.0918 765 4284358411
22.137615 1569.0918 765 4286529580
23.302752 1569.0918 765 4285417507
24.313761 1568.7321 761 4284694040
25.350458 1568.4624 758 4284557069
26.46055 1568.3724 757 4283373056
27.61101 1568.3724 757 4284093457
28.669725 1568.1926 755 4284751386
29.816513 1568.1926 755 4284887056
30.963303 1568.1926 755 4286597674
32.058716 1568.1028 754 4285813007
33.203671 1568.1028 754 4285747214
34.293579 1568.0128 753 4285747481
35.436699 1568.0128 753 4286471203
36.521099 1567.923 752 4286140694
37.662384 1567.923 752 4286074900
38.741283 1567.833 751 4286206237
39.880733 1567.833 751 4286403359
40.954128 1567.7432 750 4286076193
42.091743 1567.7432 750 4286141986
43.299084 1567.833 751 4286208295
44.438534 1567.833 751 4286208295
45.57798 1567.833 751 4286273586
46.71743 1567.833 751 4286339379
47.779816 1567.7432 750 4286405676
48.99633 1567.833 751 4286537005
50.13578 1567.833 751 4286798897
51.27523 1567.833 751 4286864946
52.330276 1567.7432 750 4286996545
53.467892 1567.7432 750 4287325254
54.693577 1567.833 751 4286670926
55.833027 1567.833 751 4287197270
57.06422 1567.923 752 4287001170
58.205505 1567.923 752 4289238132
59.34679 1567.923 752 4290027675
60.488075 1567.923 752 4294238427
61.728439 1568.0128 753 4294107872
62.972477 1568.1028 754 4293844701
64.117432 1568.1028 754 4293646808
65.366974 1568.1926 755 4293646808
66.726608 1568.3724 757 4293384665
68.093575 1568.5522 759 4293450458
69.357796 1568.6422 760 4293253847
70.513763 1568.6422 760 4293188054
71.783485 1568.7321 761 4293122009
72.941284 1568.7321 761 4293319644
74.099083 1568.7321 761 4293187541
75.614677 1569.0018 764 4293055954
76.899086 1569.0918 765 4293187291
78.187157 1569.1816 766 4293516256
79.603668 1569.3615 768 4293188054
81.280731 1569.7211 772 4293582812
82.587158 1569.811 773 4293187804
83.766975 1569.811 773 4293122011
84.946793 1569.811 773 4292858843
7.211009 1569.6881 785 4284748824
8.3999996 1569.6 784 4284748824
9.6000004 1569.6 784 4284224513
10.8 1569.6 784 4285935131
11.981651 1569.512 783 4285286680
13.179816 1569.512 783 4285418009
14.377981 1569.512 783 4285221418
15.576147 1569.512 783 4285155625
16.440367 1568.3669 770 4285022240
17.559633 1568.1908 768 4283048194
18.700918 1568.1028 767 4284553216
19.869724 1568.1028 767 4284553216
21.005505 1568.0146 766 4284161024
22.172478 1568.0146 766 4286331933
23.302752 1567.9266 765 4285155104
24.352293 1567.6624 762 4284102673
25.390825 1567.3982 759 4284885010
26.502752 1567.3101 758 4283700480
27.655046 1567.3101 758 4284352256
28.761467 1567.222 757 4284615424
29.911926 1567.222 757 4285083658
31.062386 1567.222 757 4286728227
32.110092 1567.0459 755 4285747994
33.256882 1567.0459 755 4285616407
34.348625 1566.9578 754 4285484045
35.49358 1566.9578 754 4286273304
36.579815 1566.8698 753 4285813274
37.662384 1566.7816 752 4285944859
38.803669 1566.7816 752 4286206237
39.944954 1566.7816 752 4286337566
41.020184 1566.6936 751 4285747996
42.159634 1566.6936 751 4286208547
43.368809 1566.7816 752 4286012197
44.51009 1566.7816 752 4285946404
45.651375 1566.7816 752 4286012467
46.79266 1566.7816 752 4286209589
47.933945 1566.7816 752 4286537005
49.07523 1566.7816 752 4286602799
50.216515 1566.7816 752 4286733372
51.27523 1566.6936 751 4286930750
52.41468 1566.6936 751 4287390536
53.554127 1566.6936 751 4287258950
54.693577 1566.6936 751 4286734923
55.922935 1566.7816 752 4287195474
57.06422 1566.7816 752 4287263577
58.205505 1566.7816 752 4289303160
59.442204 1566.8698 753 4290618783
60.58532 1566.8698 753 4294434777
61.827522 1566.9578 754 4293846502
63.073395 1567.0459 755 4293385951
64.220184 1567.0459 755 4293450199
65.680733 1567.3101 758 4293581528
66.939453 1567.3982 759 4293450712
68.201836 1567.4862 760 4293450712
69.467888 1567.5743 761 4293450458
70.625687 1567.5743 761 4293318872
71.783485 1567.5743 761 4293449947
72.941284 1567.5743 761 4293647069
74.216515 1567.6624 762 4293187543
75.733948 1567.9266 765 4293187543
77.02018 1568.0146 766 4293121498
78.433029 1568.1908 768 4293450206
79.977982 1568.4551 771 4293056214
81.407341 1568.6312 773 4293122263
82.587158 1568.6312 773 4293187289
83.897247 1568.7192 774 4293187289
85.078896 1568.7192 774 4292858069
7.1999998 1568.4 784 4284552472
8.3999996 1568.4 784 4284684314
9.6000004 1568.4 784 4284290572
10.8 1568.4 784 4285606431
11.981651 1568.3137 783 4285679360
13.179816 1568.3137 783 4285942531
14.377981 1568.3137 783 4285614888
15.576147 1568.3137 783 4285549095
16.466055 1567.2789 771 4285151748
17.614679 1567.1926 770 4283112192
18.730276 1567.0201 768 4284091394
19.900917 1567.0201 768 4284880910
21.038532 1566.934 767 4284490263
22.172478 1566.8477 766 4285806123
23.339449 1566.8477 766 4285283601
24.429358 1566.6752 764 4284296450
25.47156 1566.4165 761 4284292616
26.502752 1566.1578 758 4283503360
27.655046 1566.1578 758 4284221965
28.807339 1566.1578 758 4284484880
29.959633 1566.1578 758 4284620816
31.062386 1566.0715 757 4286660655
32.212845 1566.0715 757 4285942795
33.363304 1566.0715 757 4286140173
34.403671 1565.899 755 4285747481
35.550457 1565.899 755 4286405410
36.638531 1565.8129 754 4286140444
37.783485 1565.8129 754 4286140444
38.866055 1565.7266 753 4286205735
40.009174 1565.7266 753 4286468650
41.086239 1565.6404 752 4286272541
42.295414 1565.7266 753 4286469919
43.438534 1565.7266 753 4286535459
44.51009 1565.6404 752 4286667301
45.72477 1565.7266 753 4286405435
46.867889 1565.7266 753 4286471485
48.011009 1565.7266 753 4286667310
49.154129 1565.7266 753 4286733103
50.297249 1565.7266 753 4286733372
51.440369 1565.7266 753 4286996543
52.499084 1565.6404 752 4287193156
53.640366 1565.6404 752 4287127107
54.781651 1565.6404 752 4286602817
56.012844 1565.7266 753 4287260746
57.155964 1565.7266 753 4287920477
58.299084 1565.7266 753 4290091390
59.537613 1565.8129 754 4290289818
60.682568 1565.8129 754 4292987331
61.926605 1565.899 755 4294239713
63.27523 1566.0715 757 4294042077
64.528442 1566.1578 758 4293778395
65.785324 1566.244 759 4293909980
67.045868 1566.3303 760 4293648092
68.201836 1566.3303 760 4293845214
69.467888 1566.4165 761 4293187291
70.625687 1566.4165 761 4293121498
71.897247 1566.5028 762 4293319644
73.056877 1566.5028 762 4293582560
74.56881 1566.7615 765 4293318620
75.85321 1566.8477 766 4293516256
77.141281 1566.934 767 4293187291
78.678902 1567.1926 770 4293450206
79.977982 1567.2789 771 4293056216
81.407341 1567.4514 773 4292859093
82.715599 1567.5376 774 4292923862
83.897247 1567.5376 774 4292923862
85.078896 1567.5376 774 4292923601
7.1999998 1567.2 784 4284618769
8.3999996 1567.2 784 4284487183
9.6000004 1567.2 784 4284092164
10.8 1567.2 784 4284947473
11.981651 1567.1156 783 4285215504
13.179816 1567.1156 783 4286465570
14.377981 1567.1156 783 4285483050
15.480734 1566.778 779 4285022499
16.491743 1566.1871 772 4284952851
17.642202 1566.1028 771 4282979072
18.78899 1566.0183 770 4283891712
19.963303 1566.0183 770 4286785827
21.07156 1565.8495 768 4284956695
22.242203 1565.8495 768 4285154330
23.376146 1565.7651 767 4285546519
24.506422 1565.6808 766 4283770112
25.633028 1565.5963 765 4284026371
26.67156 1565.3431 762 4283960322
27.74312 1565.1743 760 4284091660
28.85321 1565.09 759 4283960074
30.007339 1565.09 759 4284620034
31.111927 1565.0055 758 4286725667
32.264221 1565.0055 758 4286007309
33.363304 1564.9211 757 4286402066
34.51376 1564.9211 757 4285944605
35.664219 1564.9211 757 4286076447
36.697247 1564.7523 755 4285944103
37.783485 1564.6678 754 4286009896
38.92844 1564.6678 754 4286336299
40.009174 1564.5835 753 4286665264
41.152294 1564.5835 753 4286535199
42.295414 1564.5835 753 4286535199
43.508255 1564.6678 754 4286600472
44.58165 1564.5835 753 4287061023
45.72477 1564.5835 753 4286863662
46.943119 1564.6678 754 4286797613
48.088074 1564.6678 754 4286733103
49.233028 1564.6678 754 4286864946
50.377983 1564.6678 754 4286864957
51.522934 1564.6678 754 4286930750
52.583485 1564.5835 753 4287258938
53.726604 1564.5835 753 4287258938
54.869724 1564.5835 753 4286864703
56.102753 1564.6678 754 4287785805
57.247707 1564.6678 754 4288904550
58.48624 1564.7523 755 4290878596
59.633026 1564.7523 755 4289305490
60.779816 1564.7523 755 4291147694
62.124771 1564.9211 757 4291807416
63.477066 1565.09 759 4293386705
64.631195 1565.09 759 4294173668
65.889908 1565.1743 760 4293844703
67.15229 1565.2587 761 4293319642
68.310089 1565.2587 761 4293385435
69.57798 1565.3431 762 4293121498
70.737617 1565.3431 762 4293582049
72.124771 1565.512 764 4293780708
73.288071 1565.512 764 4293451744
74.56881 1565.5963 765 4292989655
75.85321 1565.6808 766 4293187291
77.02018 1565.6808 766 4293120727
78.924774 1566.1871 772 4293383900
80.102753 1566.1871 772 4293187806
81.533943 1566.356 774 4292858841
82.715599 1566.356 774 4292857810
83.897247 1566.356 774 4293120725
7.1999998 1566 784 4284685076
8.3999996 1566 784 4284882711
9.5853214 1565.9175 783 4284488464
10.783486 1565.9175 783 4284159756
11.963303 1565.8348 782 4285149461
13.159633 1565.8348 782 4287123251
14.355964 1565.8348 782 4285679391
15.480734 1565.5872 779 4284297738
16.491743 1565.0092 772 4284028177
17.642202 1564.9266 771 4282844160
18.818348 1564.9266 771 4284026910
19.963303 1564.844 770 4286592836
21.137615 1564.844 770 4285480974
22.242203 1564.679 768 4286007318
23.412844 1564.679 768 4285678368
24.544954 1564.5963 767 4283507200
25.673395 1564.5138 766 4283696917
26.798164 1564.4312 765 4284025626
27.919266 1564.3486 764 4284091660
28.944954 1564.101 761 4283762438
30.055046 1564.0183 760 4284486918
31.21101 1564.0183 760 4286263328
32.315598 1563.9358 759 4286007822
33.416515 1563.8533 758 4286468373
34.568806 1563.8533 758 4286140444
35.7211 1563.8533 758 4286140444
36.814678 1563.7706 757 4286205483
37.844036 1563.6055 755 4286205483
38.990826 1563.6055 755 4286205746
40.137615 1563.6055 755 4286205746
41.218349 1563.5229 754 4286402344
42.431194 1563.6055 755 4286797102
43.57798 1563.6055 755 4286534946
44.65321 1563.5229 754 4286666788
45.798164 1563.5229 754 4286535463
46.943119 1563.5229 754 4286469414
48.088074 1563.5229 754 4286799149
49.233028 1563.5229 754 4286864942
50.458717 1563.6055 755 4286864703
51.522934 1563.5229 754 4287193925
52.667889 1563.5229 754 4287324743
53.812843 1563.5229 754 4287785294
54.957798 1563.5229 754 4287130180
56.192661 1563.6055 755 4288379991
57.339451 1563.6055 755 4288905576
58.673393 1563.7706 757 4289234285
59.919266 1563.8533 758 4285222504
61.07156 1563.8533 758 4278976520
62.322937 1563.9358 759 4284894025
63.57798 1564.0183 760 4291802289
64.733948 1564.0183 760 4293645014
65.994499 1564.101 761 4294960617
67.258713 1564.1835 762 4294041566
68.41835 1564.1835 762 4293712601
69.798164 1564.3486 764 4293450206
71.073395 1564.4312 765 4293976806
72.238533 1564.4312 765 4293780195
73.403671 1564.4312 765 4293714146
74.686241 1564.5138 766 4293516769
75.85321 1564.5138 766 4293582562
77.988991 1565.1743 774 4293450206
79.170639 1565.1743 774 4293318620
80.352295 1565.1743 774 4293384163
81.787155 1565.3395 776 4293384163
83.100914 1565.422 777 4293318872
84.288071 1565.422 777 4293779423
8.3999996 1564.8 784 4284881174
9.5853214 1564.7192 783 4284683783
10.783486 1564.7192 783 4284617990
11.981651 1564.7192 783 4285017359
13.159633 1564.6385 782 4286399012
14.355964 1564.6385 782 4285744934
15.504587 1564.4771 780 4283178752
16.620184 1564.2349 777 4283695104
17.669725 1563.8312 772 4283760640
18.847706 1563.8312 772 4284161030
19.994495 1563.7505 771 4286200869
21.137615 1563.6697 770 4285547539
22.311926 1563.6697 770 4285876504
23.412844 1563.5083 768 4285809694
24.583487 1563.5083 768 4282980608
25.754128 1563.5083 768 4284023040
26.840366 1563.3468 766 4284746757
27.963303 1563.2661 765 4284352540
29.082569 1563.1853 764 4283891989
30.102753 1562.9431 761 4284552192
31.26055 1562.9431 761 4286723096
32.366974 1562.8624 760 4286138643
33.469727 1562.7816 759 4286533401
34.623852 1562.7816 759 4286074649
35.777981 1562.7816 759 4286140442
36.873394 1562.7009 758 4285812522
37.965137 1562.6202 757 4285680935
39.115597 1562.6202 757 4286073897
40.266056 1562.6202 757 4286205483
41.416515 1562.6202 757 4285942795
42.566971 1562.6202 757 4286666517
43.71743 1562.6202 757 4286469919
44.867889 1562.6202 757 4286469919
46.018349 1562.6202 757 4286405676
47.168808 1562.6202 757 4286602799
48.165138 1562.4587 755 4286603823
49.469727 1562.6202 757 4286603823
50.620182 1562.6202 757 4286996545
51.770641 1562.6202 757 4287128132
52.921101 1562.6202 757 4287128382
54.07156 1562.6202 757 4287588933
55.222019 1562.6202 757 4286933828
56.462387 1562.7009 758 4288315481
57.706421 1562.7816 759 4288578932
58.86055 1562.7816 759 4287000157
60.014679 1562.7816 759 4284829752
61.266056 1562.8624 760 4278321152
62.521099 1562.9431 761 4279369728
63.678898 1562.9431 761 4287393125
64.939453 1563.0238 762 4292325279
66.099083 1563.0238 762 4294101690
67.471558 1563.1853 764 4294499807
68.634865 1563.1853 764 4294367965
69.908257 1563.2661 765 4293647072
71.073395 1563.2661 765 4293844451
72.238533 1563.2661 765 4293648355
73.519264 1563.3468 766 4293714148
74.686241 1563.3468 766 4293451492
76.807343 1563.9927 774 4293385699
77.988991 1563.9927 774 4293385186
79.170639 1563.9927 774 4293187806
80.601837 1564.1542 776 4293186269
81.787155 1564.1542 776 4293581026
82.972481 1564.1542 776 4293449945
7.1999998 1563.6 784 4284420875
8.3999996 1563.6 784 4284420875
9.5853214 1563.5211 783 4284352256
10.783486 1563.5211 783 4284352256
11.963303 1563.4423 782 4285410307
13.159633 1563.4423 782 4286660374
14.355964 1563.4423 782 4285873664
15.504587 1563.2844 780 4283241984
16.67156 1563.2056 779 4284025096
17.834862 1563.1266 778 4285275420
18.906422 1562.811 774 4285017359
20.025688 1562.6532 772 4286530598
21.170643 1562.5743 771 4286007559
22.346788 1562.5743 771 4285678594
23.486238 1562.4954 770 4285611277
24.660551 1562.4954 770 4282848000
25.754128 1562.3376 768 4284024343
26.92477 1562.3376 768 4285603631
28.007339 1562.1798 766 4285080606
29.128441 1562.101 765 4283567110
30.150459 1561.8643 762 4284157184
31.310091 1561.8643 762 4286459928
32.41835 1561.7853 761 4286204418
33.576145 1561.7853 761 4286664969
34.678898 1561.7064 760 4286140444
35.834862 1561.7064 760 4286074395
36.990826 1561.7064 760 4286139942
38.086239 1561.6276 759 4286073893
39.302753 1561.7064 760 4286139690
40.394497 1561.6276 759 4286600241
41.548622 1561.6276 759 4286338334
42.702751 1561.6276 759 4286601506
43.85688 1561.6276 759 4286143524
44.939449 1561.5486 758 4286077731
46.165138 1561.6276 759 4286274099
47.244038 1561.5486 758 4286405941
48.396332 1561.5486 758 4286798897
49.548622 1561.5486 758 4286864946
50.700916 1561.5486 758 4286930998
51.85321 1561.5486 758 4287391549
53.005505 1561.5486 758 4287260483
54.157799 1561.5486 758 4287655241
55.310093 1561.5486 758 4287394118
56.552292 1561.6276 759 4288972893
57.798164 1561.7064 760 4288841587
58.954128 1561.7064 760 4286078281
60.205505 1561.7853 761 4282001697
61.363304 1561.7853 761 4278190080
62.620182 1561.8643 762 4278190080
63.779816 1561.8643 762 4278848516
65.144951 1562.022 764 4283510834
66.308258 1562.022 764 4290287770
67.57798 1562.101 765 4290749393
68.743118 1562.101 765 4294762751
70.018349 1562.1798 766 4294108906
71.185318 1562.1798 766 4293582562
72.352295 1562.1798 766 4293648103
73.519264 1562.1798 766 4294306290
74.686241 1562.1798 766 4293912295
77.045868 1562.9688 776 4293451744
78.231194 1562.9688 776 4293253345
79.416512 1562.9688 776 4293253345
80.601837 1562.9688 776 4293450206
82.800003 1563.6 784 4293582049
84 1563.6 784 4293384667
10.766973 1562.2458 782 4284353536
11.963303 1562.2458 782 4284945924
13.159633 1562.2458 782 4285669390
14.355964 1562.2458 782 4285406725
15.504587 1562.0918 780 4283695872
16.67156 1562.0146 779 4284153856
17.862385 1562.0146 779 4286061586
19.023853 1561.9376 778 4285411856
20.088074 1561.6294 774 4286727715
21.203671 1561.4752 772 4286203920
22.346788 1561.3982 771 4285940748
23.522936 1561.3982 771 4285413904
24.660551 1561.321 770 4282584832
25.834862 1561.321 770 4283893248
27.009174 1561.321 770 4285538326
28.051376 1561.09 767 4285081119
29.174313 1561.0128 766 4283831052
30.293577 1560.9358 765 4284353024
31.409174 1560.8588 764 4286195225
32.572475 1560.8588 764 4285479697
33.629356 1560.7046 762 4286532129
34.78899 1560.7046 762 4286205455
35.891743 1560.6276 761 4286205455
37.049541 1560.6276 761 4286205467
38.14679 1560.5504 760 4286271260
39.365139 1560.6276 761 4285944605
40.458717 1560.5504 760 4286405156
41.614677 1560.5504 760 4286143774
42.770641 1560.5504 760 4286143774
43.926605 1560.5504 760 4286078244
45.011009 1560.4734 759 4285946402
46.238533 1560.5504 760 4286143272
47.319267 1560.4734 759 4286472237
48.473396 1560.4734 759 4286733355
49.627522 1560.4734 759 4286930991
50.781651 1560.4734 759 4286931250
51.93578 1560.4734 759 4287391801
53.174313 1560.5504 760 4287260733
54.330276 1560.5504 760 4287655491
55.48624 1560.5504 760 4287655752
56.732109 1560.6276 761 4289300834
57.889908 1560.6276 761 4288777079
59.141285 1560.7046 762 4285684808
60.300919 1560.7046 762 4281542150
61.655045 1560.8588 764 4279239424
62.818348 1560.8588 764 4278455818
63.981651 1560.8588 764 4278192390
65.247704 1560.9358 765 4278191104
66.412842 1560.9358 765 4286354812
67.57798 1560.9358 765 4288717224
68.851379 1561.0128 766 4293717492
70.128441 1561.09 767 4294438641
71.409172 1561.167 768 4293714661
72.579819 1561.167 768 4293582310
74.444038 1561.6294 774 4294240240
75.977982 1561.8606 777 4293846761
77.403671 1562.0146 779 4293583845
78.715599 1562.0918 780 4293253345
79.908257 1562.0918 780 4293319138
81.72477 1562.4771 785 4293385184
82.926605 1562.4771 785 4293516769
84.128441 1562.4771 785 4293253851
85.7211 1562.7083 788 4293187802
10.783486 1561.1248 783 4283177216
13.179816 1561.1248 783 4284750106
14.355964 1561.0496 782 4284749826
15.552294 1561.0496 782 4283302400
16.697248 1560.899 780 4283629568
17.862385 1560.8239 779 4285865752
19.023853 1560.7487 778 4285344768
20.181652 1560.6733 777 4285542144
21.269724 1560.4478 774 4285741312
22.416513 1560.3724 773 4286004480
23.559633 1560.2972 772 4285282816
24.699083 1560.222 771 4282519552
25.875229 1560.222 771 4283826944
27.009174 1560.1467 770 4285077005
28.095413 1559.9963 768 4284553224
29.220184 1559.9211 767 4283829760
30.341284 1559.8458 766 4284287492
31.508257 1559.8458 766 4285471766
32.623852 1559.7706 765 4285083154
33.78899 1559.7706 765 4286793772
34.899082 1559.6954 764 4286205455
35.948624 1559.5449 762 4286205455
37.049541 1559.4697 761 4286271260
38.20734 1559.4697 761 4286402846
39.427525 1559.5449 762 4286338068
40.522934 1559.4697 761 4286601497
41.680733 1559.4697 761 4286274331
42.838531 1559.4697 761 4286405660
43.926605 1559.3945 760 4286143774
45.082569 1559.3945 760 4286077981
46.238533 1559.3945 760 4286274340
47.394497 1559.3945 760 4286734891
48.550457 1559.3945 760 4286864942
49.706421 1559.3945 760 4287259700
50.862385 1559.3945 760 4286997295
52.018349 1559.3945 760 4287194931
53.258717 1559.4697 761 4287260483
54.416515 1559.4697 761 4287786827
55.57431 1559.4697 761 4287721797
56.732109 1559.4697 761 4289235036
57.981651 1559.5449 762 4288776816
59.328442 1559.6954 764 4285618752
60.491745 1559.6954 764 4281542191
61.655045 1559.6954 764 4280489503
62.917431 1559.7706 765 4279706176
