# .PCD v0.7 - Point Cloud Data file format
VERSION 0.7
FIELDS x y z rgb
SIZE 4 4 4 4
TYPE F F F U
COUNT 1 1 1 1
WIDTH 1376
HEIGHT 1
VIEWPOINT 0 0 0 1 0 0 0
POINTS 1376
DATA ascii
57.959633 1600.5798 726 4285091947
68.069725 1614.1046 817 4285091906
60.14679 1600.5798 726 4285157699
61.240368 1600.5798 726 4285617984
62.333946 1600.5798 726 4286210121
63.533943 1600.7284 727 4286670394
64.629356 1600.7284 727 4287394118
65.72477 1600.7284 727 4286868832
66.820183 1600.7284 727 4288382071
67.801834 1600.5798 726 4289436838
68.895416 1600.5798 726 4294964991
69.988991 1600.5798 726 4294967295
71.201836 1600.7284 727 4294967295
72.660553 1601.1743 730 4294966526
73.761467 1601.1743 730 4294768633
74.862389 1601.1743 730 4294966011
76.089905 1601.323 731 4294967039
77.192657 1601.323 731 4294966270
78.42569 1601.4716 732 4294899705
79.662384 1601.6202 733 4294965242
80.768806 1601.6202 733 4294965499
82.011009 1601.7688 734 4294834682
83.119263 1601.7688 734 4294966011
84.506424 1602.066 736 4294966269
85.900917 1602.3633 738 4294966011
87.15963 1602.512 739 4294899451
88.277061 1602.512 739 4294833658
89.688072 1602.8092 741 4294505460
90.957802 1602.9578 742 4294374131
92.231194 1603.1064 743 4294438900
93.355965 1603.1064 743 4294899451
18.26055 1603.3027 752 4284834153
19.401834 1603.3027 752 4283715929
20.510092 1603.156 751 4283057994
21.614679 1603.0092 750 4283189581
22.605505 1602.422 746 4283187536
23.658716 1602.1284 744 4283253329
24.744955 1601.9817 743 4283254344
25.78532 1601.6881 741 4283254344
26.862385 1601.5413 740 4283451726
27.93578 1601.3945 739 4283780434
28.957798 1601.101 737 4283715143
29.922935 1600.6605 734 4283452228
30.979816 1600.5138 733 4283385931
32.086239 1600.5138 733 4283583053
33.137615 1600.3669 732 4283911504
34.242203 1600.3669 732 4283845711
35.288074 1600.2202 731 4283714641
36.390827 1600.2202 731 4283714641
37.49358 1600.2202 731 4283780940
38.532108 1600.0734 730 4283846733
39.566971 1599.9266 729 4283977549
40.666054 1599.9266 729 4283911756
41.765137 1599.9266 729 4283583055
42.86422 1599.9266 729 4283254090
43.889908 1599.7798 728 4283386182
44.987156 1599.7798 728 4283254596
46.007339 1599.6331 727 4283645766
47.102753 1599.6331 727 4283909195
48.2789 1599.7798 728 4283908945
49.376148 1599.7798 728 4283974738
50.473396 1599.7798 728 4286669432
51.570641 1599.7798 728 4288840601
52.755962 1599.9266 729 4289698463
53.855045 1599.9266 729 4289698463
54.954128 1599.9266 729 4289175197
55.959633 1599.7798 728 4287004284
56.866055 1599.4862 726 4284637783
58.154129 1599.7798 728 4284243025
59.251377 1599.7798 728 4285682491
60.14679 1599.4862 726 4285814334
61.240368 1599.4862 726 4285814332
62.333946 1599.4862 726 4286735434
63.427525 1599.4862 726 4286934341
64.629356 1599.6331 727 4287066184
65.72477 1599.6331 727 4286671454
66.820183 1599.6331 727 4288513658
67.915596 1599.6331 727 4290487472
69.011009 1599.6331 727 4294965247
70.341286 1599.9266 729 4294967295
71.440369 1599.9266 729 4294966527
72.660553 1600.0734 730 4294966270
73.761467 1600.0734 730 4294965755
74.98716 1600.2202 731 4294637047
76.216515 1600.3669 732 4294966783
77.321098 1600.3669 732 4294967039
78.555962 1600.5138 733 4294834682
79.662384 1600.5138 733 4294899705
80.902756 1600.6605 734 4294965498
82.28257 1600.9541 736 4294965498
83.532112 1601.101 737 4294965755
84.785324 1601.2477 738 4294966783
86.042198 1601.3945 739 4294966526
87.30275 1601.5413 740 4294833660
88.566971 1601.6881 741 4294767867
89.834862 1601.8348 742 4294571254
91.106422 1601.9817 743 4294176496
92.381653 1602.1284 744 4293846250
93.508255 1602.1284 744 4294306801
18.26055 1602.1615 752 4288780200
19.401834 1602.1615 752 4288319649
20.543119 1602.1615 752 4288450956
21.649542 1602.0165 751 4287595903
22.78899 1602.0165 751 4286737019
23.735781 1601.2917 746 4284960865
24.744955 1600.8569 743 4283909960
25.827522 1600.7119 742 4283317566
26.906422 1600.567 741 4283187012
27.93578 1600.2771 739 4283187012
28.957798 1599.9872 737 4283188019
30.022018 1599.8422 736 4283253813
31.031193 1599.5522 734 4283186498
32.086239 1599.4073 733 4282923583
33.192661 1599.4073 733 4283450188
34.299084 1599.4073 733 4283450188
35.34679 1599.2623 732 4283450188
36.451378 1599.2623 732 4283582031
37.555962 1599.2623 732 4283385160
38.596329 1599.1174 731 4283253831
39.633026 1598.9725 730 4283646018
40.733944 1598.9725 730 4283711811
41.765137 1598.8275 729 4283645770
42.86422 1598.8275 729 4284172114
43.963303 1598.8275 729 4285157712
44.987156 1598.6826 728 4286473572
46.084404 1598.6826 728 4288118381
47.181652 1598.6826 728 4288973690
48.2789 1598.6826 728 4288710802
49.376148 1598.6826 728 4289039511
50.473396 1598.6826 728 4288712879
51.570641 1598.6826 728 4288449450
52.755962 1598.8275 729 4286736517
53.855045 1598.8275 729 4285684086
54.954128 1598.8275 729 4285290055
55.959633 1598.6826 728 4284763710
57.056881 1598.6826 728 4285158453
58.154129 1598.6826 728 4285750333
59.251377 1598.6826 728 4286143033
60.348625 1598.6826 728 4286208826
61.240368 1598.3927 726 4286274368
62.438534 1598.5376 727 4286998090
63.533943 1598.5376 727 4286539576
64.629356 1598.5376 727 4287131714
65.72477 1598.5376 727 4287132770
66.820183 1598.5376 727 4289238402
67.915596 1598.5376 727 4290818241
69.011009 1598.5376 727 4294965759
70.341286 1598.8275 729 4294967295
71.440369 1598.8275 729 4294965757
72.781654 1599.1174 731 4294965757
73.884407 1599.1174 731 4294966783
75.111923 1599.2623 732 4294965755
76.216515 1599.2623 732 4294966527
77.321098 1599.2623 732 4294966781
78.555962 1599.4073 733 4294965496
79.794495 1599.5522 734 4294833910
81.170639 1599.8422 736 4294965496
82.41835 1599.9872 737 4294899705
83.669724 1600.1321 738 4294833912
85.064217 1600.422 740 4294966013
86.183487 1600.422 740 4294966527
87.30275 1600.422 740 4294899199
88.711929 1600.7119 742 4294636286
89.981651 1600.8569 743 4294374131
91.255043 1601.0018 744 4294044909
92.532112 1601.1467 745 4294174960
18.289907 1601.1633 753 4288452239
19.433027 1601.1633 753 4288452239
20.543119 1601.0201 752 4289766304
21.649542 1600.8771 751 4288055687
22.78899 1600.8771 751 4288447374
23.735781 1600.1615 746 4288118665
24.744955 1599.7321 743 4287067517
25.869724 1599.7321 743 4285225313
26.950459 1599.589 742 4284961114
28.027523 1599.4459 741 4284368721
29.005505 1599.0165 738 4283711811
30.022018 1598.7302 736 4283448895
31.133945 1598.7302 736 4283186502
32.13945 1598.4441 734 4283120709
33.192661 1598.3009 733 4283252296
34.299084 1598.3009 733 4283186502
35.405506 1598.3009 733 4283318602
36.511925 1598.3009 733 4283252809
37.555962 1598.1578 732 4283776323
38.660549 1598.1578 732 4283907909
39.699081 1598.0146 731 4283842366
40.733944 1597.8716 730 4284434759
41.834862 1597.8716 730 4285485923
42.86422 1597.7284 729 4286143854
43.963303 1597.7284 729 4288509574
44.987156 1597.5853 728 4288509574
46.084404 1597.5853 728 4289167238
47.181652 1597.5853 728 4289693582
48.2789 1597.5853 728 4289497486
49.376148 1597.5853 728 4289300107
50.473396 1597.5853 728 4288121491
51.570641 1597.5853 728 4286674045
52.755962 1597.7284 729 4284504144
53.855045 1597.7284 729 4284372557
54.954128 1597.7284 729 4285420089
55.959633 1597.5853 728 4285420089
57.056881 1597.5853 728 4285945650
58.154129 1597.5853 728 4286209078
59.251377 1597.5853 728 4286405676
60.348625 1597.5853 728 4286602799
61.343121 1597.4421 727 4286734148
62.438534 1597.4421 727 4287194699
63.533943 1597.4421 727 4286539576
64.521103 1597.2991 726 4287328836
65.72477 1597.4421 727 4287593321
66.820183 1597.4421 727 4289435525
67.915596 1597.4421 727 4291607241
69.126602 1597.5853 728 4294965759
70.341286 1597.7284 729 4294966271
71.559631 1597.8716 730 4294965244
72.781654 1598.0146 731 4294833658
74.007339 1598.1578 732 4294966271
75.111923 1598.1578 732 4294834682
76.343117 1598.3009 733 4294966011
77.449539 1598.3009 733 4294965499
78.686241 1598.4441 734 4294965242
79.794495 1598.4441 734 4294569968
81.43853 1599.0165 738 4294899190
82.554131 1599.0165 738 4294899192
83.807343 1599.1597 739 4294964985
85.203667 1599.4459 741 4294964985
86.183487 1599.3027 740 4294964985
87.30275 1599.3027 740 4294833660
88.42202 1599.3027 740 4294636282
89.834862 1599.589 742 4294438902
91.998169 1600.5908 749 4294175731
93.284401 1600.7339 750 4294175212
19.46422 1600.1615 754 4286605620
20.609175 1600.1615 754 4286869602
21.719267 1600.0201 753 4287790704
22.862385 1600.0201 753 4288381830
23.889908 1599.5963 750 4289434519
24.78532 1598.7487 744 4289370261
25.911926 1598.7487 744 4290159777
26.994495 1598.6073 743 4289437853
28.073395 1598.4661 742 4289437853
29.100918 1598.1835 740 4289106842
30.170643 1598.0422 739 4288777620
31.236698 1597.9009 738 4288711314
32.245872 1597.6184 736 4288579727
33.3578 1597.6184 736 4288579214
34.355965 1597.3358 734 4288447628
35.464222 1597.3358 734 4288447624
36.572475 1597.3358 734 4288447624
37.618347 1597.1945 733 4288645770
38.72477 1597.1945 733 4289106321
39.765137 1597.0532 732 4289108372
40.869724 1597.0532 732 4289568923
41.904587 1596.9119 731 4289306015
42.93578 1596.7706 730 4289371808
43.963303 1596.6294 729 4287987618
45.062386 1596.6294 729 4287527067
46.161469 1596.6294 729 4287063674
47.260551 1596.6294 729 4286603123
48.2789 1596.488 728 4286470740
49.376148 1596.488 728 4286142031
50.473396 1596.488 728 4285092156
51.570641 1596.488 728 4284105261
52.755962 1596.6294 729 4285091624
53.855045 1596.6294 729 4285486382
54.954128 1596.6294 729 4285748023
55.959633 1596.488 728 4286011195
57.056881 1596.488 728 4286275373
58.154129 1596.488 728 4286406703
59.35046 1596.6294 729 4286667560
60.449543 1596.6294 729 4286865196
61.548622 1596.6294 729 4286734148
62.647705 1596.6294 729 4287260492
63.746788 1596.6294 729 4286736969
64.845871 1596.6294 729 4287723864
65.944954 1596.6294 729 4287134820
66.932114 1596.488 728 4289700748
68.14312 1596.6294 729 4291543245
69.357796 1596.7706 730 4294967295
70.576149 1596.9119 731 4294967295
71.798164 1597.0532 732 4294967295
73.023849 1597.1945 733 4294966783
74.130272 1597.1945 733 4294967295
75.236694 1597.1945 733 4294899705
76.469727 1597.3358 734 4294899705
77.57798 1597.3358 734 4294965498
78.946793 1597.6184 736 4294899705
80.190826 1597.7596 737 4294965498
81.43853 1597.9009 738 4294965755
82.689911 1598.0422 739 4294965498
83.944954 1598.1835 740 4294965498
85.343117 1598.4661 742 4294767865
86.324768 1598.3247 741 4294767865
87.30275 1598.1835 740 4294767867
90.01651 1599.7377 751 4294636282
91.30275 1599.8789 752 4294702844
92.14679 1599.5963 750 4294373879
93.43486 1599.7377 751 4294306799
19.495413 1599.156 755 4285616674
20.642202 1599.156 755 4286472779
21.78899 1599.156 755 4286472779
22.899082 1599.0165 754 4286539354
23.966972 1598.7377 752 4287591785
24.825687 1597.7615 745 4287527546
25.954128 1597.7615 745 4288317062
27.038532 1597.6221 744 4288055941
28.119267 1597.4825 743 4288845200
29.196331 1597.3431 742 4289436306
30.319265 1597.3431 742 4289436306
31.442202 1597.3431 742 4290814368
32.352295 1596.7853 738 4290682526
33.467892 1596.7853 738 4290554019
34.469727 1596.5065 736 4290093468
35.58165 1596.5065 736 4289962400
36.693577 1596.5065 736 4289501849
37.805504 1596.5065 736 4289240210
38.78899 1596.2275 734 4289108368
39.831192 1596.0881 733 4289109905
40.937614 1596.0881 733 4288780941
41.974312 1595.9486 732 4287006088
43.007339 1595.8092 731 4286940295
44.036697 1595.6697 730 4286084475
45.137615 1595.6697 730 4285755253
46.161469 1595.5303 729 4285096537
47.260551 1595.5303 729 4284043593
48.359634 1595.5303 729 4284696617
49.458717 1595.5303 729 4285091374
50.557796 1595.5303 729 4285484585
51.656879 1595.5303 729 4285682221
52.844036 1595.6697 730 4286207541
53.944954 1595.6697 730 4286207541
54.954128 1595.5303 729 4286207791
56.053211 1595.5303 729 4286273840
57.152294 1595.5303 729 4286537005
58.251377 1595.5303 729 4286602799
59.35046 1595.5303 729 4286799149
60.449543 1595.5303 729 4286799149
61.548622 1595.5303 729 4286537028
62.647705 1595.5303 729 4287326288
63.746788 1595.5303 729 4286802762
64.845871 1595.5303 729 4287658071
66.055046 1595.6697 730 4286937192
67.267891 1595.8092 731 4290029463
68.370644 1595.8092 731 4291937749
69.588989 1595.9486 732 4294967295
70.693581 1595.9486 732 4294967295
71.917435 1596.0881 733 4294966783
73.023849 1596.0881 733 4294899705
74.130272 1596.0881 733 4294966527
75.361465 1596.2275 734 4294571254
76.469727 1596.2275 734 4294768633
77.834862 1596.5065 736 4294899705
79.207336 1596.7853 738 4294966013
80.455048 1596.9248 739 4294967039
81.572479 1596.9248 739 4294768633
82.825691 1597.0642 740 4294637047
84.082565 1597.2036 741 4294637047
85.343117 1597.3431 742 4294505206
86.466057 1597.3431 742 4294505206
87.445869 1597.2036 741 4294505208
90.01651 1598.5981 751 4294505208
91.009171 1598.4587 750 4294636282
92.29541 1598.5981 751 4294307316
93.43486 1598.5981 751 4293846761
17.284403 1598.422 758 4285747730
18.407339 1598.2844 757 4285943851
19.557798 1598.2844 757 4286009900
20.708258 1598.2844 757 4285682469
21.78899 1598.0092 755 4285485089
22.93578 1598.0092 755 4285222183
24.005505 1597.7339 753 4284893219
25.148624 1597.7339 753 4285353520
25.99633 1596.7706 746 4285550642
27.082569 1596.6331 745 4285354798
28.165138 1596.4954 744 4285552177
29.244038 1596.3578 743 4285879875
30.319265 1596.2202 742 4286143046
31.442202 1596.2202 742 4286207822
32.511925 1596.0825 741 4286273616
33.57798 1595.9449 740 4286208588
34.583485 1595.6697 738 4286274381
35.640366 1595.5321 737 4285815115
36.754128 1595.5321 737 4285683273
37.805504 1595.3945 736 4285880908
38.78899 1595.1193 734 4286078031
39.897247 1595.1193 734 4285092921
40.937614 1594.9817 733 4284369455
42.044037 1594.9817 733 4284500532
43.078899 1594.844 732 4284303409
44.110092 1594.7064 731 4284172062
45.212845 1594.7064 731 4284106013
46.238533 1594.5688 730 4284631325
47.339451 1594.5688 730 4284763168
48.440369 1594.5688 730 4285156636
49.458717 1594.4312 729 4286077738
50.557796 1594.4312 729 4285813800
51.743118 1594.5688 730 4285813800
52.844036 1594.5688 730 4286075439
53.944954 1594.5688 730 4286404404
55.045872 1594.5688 730 4286339881
56.14679 1594.5688 730 4286339881
57.247707 1594.5688 730 4286732855
58.348625 1594.5688 730 4286864442
59.449543 1594.5688 730 4286930485
60.550457 1594.5688 730 4286930485
61.754128 1594.7064 731 4286406473
62.85688 1594.7064 731 4287129940
63.959633 1594.7064 731 4286802512
65.170639 1594.844 732 4287789407
66.27523 1594.844 732 4287331180
67.379814 1594.844 732 4291081381
68.484406 1594.844 732 4292596448
69.588989 1594.844 732 4294967295
70.811012 1594.9817 733 4294967295
71.917435 1594.9817 733 4294967295
73.144951 1595.1193 734 4294967295
74.253212 1595.1193 734 4294967295
75.361465 1595.1193 734 4294966265
76.722939 1595.3945 736 4294966779
77.834862 1595.3945 736 4294965755
79.207336 1595.6697 738 4294966013
80.455048 1595.8074 739 4294966009
81.572479 1595.8074 739 4294571252
82.961472 1596.0825 741 4294636534
84.220184 1596.2202 742 4294767863
85.482567 1596.3578 743 4294505460
86.607338 1596.3578 743 4294505460
87.732109 1596.3578 743 4294438902
90.161469 1597.5963 752 4294175731
91.15596 1597.4587 751 4294175985
92.29541 1597.4587 751 4294110191
93.58532 1597.5963 752 4294044144
18.407339 1597.1339 757 4286468652
19.557798 1597.1339 757 4286468652
20.708258 1597.1339 757 4286272043
21.858715 1597.1339 757 4286272043
22.93578 1596.8624 755 4285616426
24.044037 1596.7266 754 4285484839
25.108257 1596.4551 752 4285550633
26.080734 1595.9119 748 4285352997
27.21468 1595.9119 748 4285483552
28.25688 1595.6404 746 4285549345
29.339449 1595.5046 745 4285286943
30.418348 1595.3688 744 4285286943
31.493578 1595.233 743 4285091374
32.618347 1595.233 743 4284959788
33.688072 1595.0973 742 4284567081
34.640366 1594.6899 739 4284632874
35.699081 1594.5541 738 4284960820
36.814678 1594.5541 738 4284895026
37.930275 1594.5541 738 4285157172
38.981651 1594.4183 737 4284696621
39.897247 1594.011 734 4284957980
41.005505 1594.011 734 4285023773
42.044037 1593.8752 733 4284893216
43.078899 1593.7395 732 4284827423
44.183487 1593.7395 732 4285024025
45.288074 1593.7395 732 4285155354
46.315598 1593.6036 731 4285285657
47.41835 1593.6036 731 4285351450
48.440369 1593.4679 730 4285615633
49.541283 1593.4679 730 4285944342
50.6422 1593.4679 730 4286009896
51.829357 1593.6036 731 4286009896
52.93211 1593.6036 731 4285746983
54.034863 1593.6036 731 4286470449
55.137615 1593.6036 731 4286667564
56.14679 1593.4679 730 4286667564
57.343121 1593.6036 731 4286732855
58.445873 1593.6036 731 4286798649
59.548622 1593.6036 731 4286864703
60.651375 1593.6036 731 4287062338
61.85688 1593.7395 732 4286669639
62.961468 1593.7395 732 4287195983
64.066055 1593.7395 732 4287460942
65.170639 1593.7395 732 4287789907
66.27523 1593.7395 732 4287790450
67.379814 1593.7395 732 4292395960
68.598167 1593.8752 733 4293122790
69.70459 1593.8752 733 4294967295
70.811012 1593.8752 733 4294967295
71.917435 1593.8752 733 4294966524
73.144951 1594.011 734 4294966527
74.253212 1594.011 734 4294967039
75.361465 1594.011 734 4294767863
76.722939 1594.2826 736 4294965755
77.834862 1594.2826 736 4294965755
79.207336 1594.5541 738 4294965755
80.587158 1594.8257 740 4294965755
81.706421 1594.8257 740 4294767863
83.097244 1595.0973 742 4294636534
84.357796 1595.233 743 4294439154
85.622017 1595.3688 744 4294438641
86.889908 1595.5046 745 4294635763
89.02018 1596.4551 752 4294372594
90.161469 1596.4551 752 4294306801
91.30275 1596.4551 752 4294110705
92.444038 1596.4551 752 4293978862
93.58532 1596.4551 752 4293715693
20.708258 1595.9835 757 4286600222
21.78899 1595.7156 755 4286666015
22.93578 1595.7156 755 4285813800
24.005505 1595.4478 753 4285616678
25.108257 1595.3137 752 4285681699
26.122936 1594.9119 749 4285615905
27.21468 1594.778 748 4285615905
28.25688 1594.5101 746 4285484576
29.387156 1594.5101 746 4284958480
30.418348 1594.2422 744 4284761101
31.544954 1594.2422 744 4284958743
32.671558 1594.2422 744 4285616674
33.798164 1594.2422 744 4284828186
34.811008 1593.9744 742 4284762393
35.757797 1593.5725 739 4284500509
36.875229 1593.5725 739 4284631838
37.930275 1593.4385 738 4284894243
39.045872 1593.4385 738 4284762914
40.095413 1593.3046 737 4285090595
41.209175 1593.3046 737 4285090595
42.113762 1592.9027 734 4284893200
43.150459 1592.7688 733 4284958993
44.256882 1592.7688 733 4285155604
45.288074 1592.6349 732 4285155604
46.392662 1592.6349 732 4285351956
47.41835 1592.501 731 4285285907
48.521099 1592.501 731 4285352454
49.623852 1592.501 731 4285352454
50.726604 1592.501 731 4285483552
51.915596 1592.6349 732 4285944103
53.020184 1592.6349 732 4285944357
54.034863 1592.501 731 4286536494
55.137615 1592.501 731 4286535979
56.240368 1592.501 731 4286667564
57.343121 1592.501 731 4286798135
58.445873 1592.501 731 4286798135
59.548622 1592.501 731 4286995010
60.752293 1592.6349 732 4287587147
61.85688 1592.6349 732 4286998090
63.066055 1592.7688 733 4287590227
64.066055 1592.6349 732 4287263563
65.2789 1592.7688 733 4288118872
66.385323 1592.7688 733 4287725941
67.491745 1592.7688 733 4292594622
68.598167 1592.7688 733 4293319652
69.70459 1592.7688 733 4294967295
70.811012 1592.7688 733 4294967293
71.917435 1592.7688 733 4294966265
73.144951 1592.9027 734 4294966527
74.253212 1592.9027 734 4294966783
75.361465 1592.9027 734 4294833660
76.722939 1593.1707 736 4294965759
77.834862 1593.1707 736 4294965498
79.337616 1593.5725 739 4294965498
80.587158 1593.7064 740 4294965498
81.84037 1593.8403 741 4294899705
83.233025 1594.1083 743 4294636534
84.357796 1594.1083 743 4294373361
85.761467 1594.3761 745 4294438641
87.031189 1594.5101 746 4294438641
89.1633 1595.4478 753 4293978603
90.306419 1595.4478 753 4293846761
91.449539 1595.4478 753 4293978351
92.444038 1595.3137 752 4294175731
93.58532 1595.3137 752 4293978353
20.708258 1594.833 757 4286468893
21.858715 1594.833 757 4286403100
22.93578 1594.5688 755 4285813789
24.005505 1594.3046 753 4285682203
25.06789 1594.0404 751 4285681699
26.122936 1593.7761 749 4285681699
27.258715 1593.7761 749 4285485076
28.348623 1593.644 748 4285353490
29.387156 1593.3798 746 4285286656
30.46789 1593.2477 745 4285418496
31.596331 1593.2477 745 4285287168
32.72477 1593.2477 745 4285418752
33.798164 1593.1156 744 4285287693
34.811008 1592.8513 742 4285156106
35.875229 1592.7192 741 4284235776
36.875229 1592.4551 739 4285025290
37.992661 1592.4551 739 4285156640
39.110092 1592.4551 739 4285156640
40.161469 1592.323 738 4285286943
41.277065 1592.323 738 4285286943
42.322937 1592.1908 737 4284958480
43.222019 1591.7944 734 4284826894
44.330276 1591.7944 734 4284958230
45.363304 1591.6624 733 4284694801
46.469727 1591.6624 733 4284758537
47.49725 1591.5303 732 4284758537
48.521099 1591.3982 731 4285151748
49.623852 1591.3982 731 4285348870
50.811008 1591.5303 732 4285613848
52.001835 1591.6624 733 4285876763
53.108257 1591.6624 733 4286010398
54.21468 1591.6624 733 4286405156
55.321102 1591.6624 733 4286601508
56.333946 1591.5303 732 4286601508
57.533943 1591.6624 733 4286928953
58.640366 1591.6624 733 4286994747
59.746788 1591.6624 733 4286863931
60.85321 1591.6624 733 4287521604
61.959633 1591.6624 733 4286998090
63.066055 1591.6624 733 4287590227
64.172478 1591.6624 733 4287131716
65.2789 1591.6624 733 4288184147
66.385323 1591.6624 733 4287726971
67.491745 1591.6624 733 4292595653
68.598167 1591.6624 733 4293123042
69.70459 1591.6624 733 4294967295
70.811012 1591.6624 733 4294967295
71.917435 1591.6624 733 4294966011
73.023849 1591.6624 733 4294767350
74.130272 1591.6624 733 4294965242
75.361465 1591.7944 734 4294767352
76.722939 1592.0587 736 4294898938
77.834862 1592.0587 736 4294964985
79.207336 1592.323 738 4294965242
80.719269 1592.7192 741 4294768633
81.84037 1592.7192 741 4294702840
83.233025 1592.9835 743 4294767865
84.357796 1592.9835 743 4294373107
86.877068 1594.3046 753 4294044396
88.02018 1594.3046 753 4294044396
89.306419 1594.4366 754 4294109419
90.596329 1594.5688 755 4293978090
91.596329 1594.4366 754 4293912556
92.741287 1594.4366 754 4294044142
20.708258 1593.6826 757 4286468893
21.858715 1593.6826 757 4286337051
22.93578 1593.422 755 4285944605
24.044037 1593.2917 754 4285813276
25.108257 1593.0312 752 4285616407
26.165138 1592.7706 750 4285682201
27.258715 1592.6404 749 4286008340
28.348623 1592.5101 748 4285942547
29.482569 1592.5101 748 4285811200
30.517431 1592.2495 746 4286271748
31.596331 1592.1193 745 4286008840
32.72477 1592.1193 745 4285745667
33.798164 1591.989 744 4285353488
34.867889 1591.8588 743 4285353488
35.933945 1591.7284 742 4284565273
36.99633 1591.5981 741 4285091617
38.117432 1591.5981 741 4285156636
39.174313 1591.4679 740 4285090843
40.227524 1591.3376 739 4285221400
41.344955 1591.3376 739 4285024277
42.462387 1591.3376 739 4284893200
43.508255 1591.2073 738 4284696078
44.623852 1591.2073 738 4284826129
45.588989 1590.9468 736 4284694542
46.546787 1590.6863 734 4284758287
47.655045 1590.6863 734 4284889616
48.682568 1590.5559 733 4284889866
49.78899 1590.5559 733 4284692744
50.895412 1590.5559 733 4285087761
52.088074 1590.6863 734 4285614361
53.196331 1590.6863 734 4285483804
54.304588 1590.6863 734 4286141990
55.412846 1590.6863 734 4286207780
56.427525 1590.5559 733 4286405158
57.629356 1590.6863 734 4286798135
58.640366 1590.5559 733 4287521602
59.746788 1590.5559 733 4286930496
60.85321 1590.5559 733 4287391047
61.959633 1590.5559 733 4287063631
63.066055 1590.5559 733 4287656025
64.172478 1590.5559 733 4287263563
65.2789 1590.5559 733 4288118872
66.385323 1590.5559 733 4287725693
67.491745 1590.5559 733 4293186255
68.598167 1590.5559 733 4293649387
69.70459 1590.5559 733 4294967295
70.811012 1590.5559 733 4294967295
71.917435 1590.5559 733 4294965498
73.023849 1590.5559 733 4294965499
74.130272 1590.5559 733 4294966783
75.361465 1590.6863 734 4294833658
76.722939 1590.9468 736 4294767865
77.834862 1590.9468 736 4294965498
79.077065 1591.077 737 4294966013
80.587158 1591.4679 740 4294834682
81.706421 1591.4679 740 4294702840
83.233025 1591.8588 743 4294833660
84.357796 1591.8588 743 4294307316
87.01651 1593.2917 754 4293978603
88.161469 1593.2917 754 4293978603
89.449539 1593.422 755 4294044396
90.596329 1593.422 755 4294110189
91.743118 1593.422 755 4293912556
92.889908 1593.422 755 4294307314
18.67156 1593.6881 766 4286272545
19.807339 1593.5596 765 4286272545
20.939449 1593.4312 764 4286337568
21.893578 1592.6605 758 4286337568
23.009174 1592.5321 757 4285944596
24.044037 1592.1467 754 4285878802
25.108257 1591.8899 752 4285878800
26.20734 1591.7615 751 4285747214
27.346788 1591.7615 751 4286205455
28.394495 1591.5046 749 4286271248
29.482569 1591.3761 748 4286139660
30.616514 1591.3761 748 4286139660
31.647707 1591.1193 746 4285747212
32.777981 1591.1193 746 4285615883
33.85321 1590.9908 745 4285484574
34.867889 1590.7339 743 4285418781
35.933945 1590.6055 742 4284827648
37.056881 1590.6055 742 4285353990
38.179817 1590.6055 742 4285287193
39.238533 1590.4771 741 4285155606
40.359634 1590.4771 741 4285155604
41.412846 1590.3486 740 4285024275
42.462387 1590.2202 739 4284958480
43.579815 1590.2202 739 4284563722
44.623852 1590.0918 738 4284890892
45.739449 1590.0918 738 4284890892
46.855045 1590.0918 738 4284562441
47.891743 1589.9633 737 4284694027
48.763302 1589.578 734 4284694027
49.871559 1589.578 734 4284430854
50.979816 1589.578 734 4284560905
52.260551 1589.8348 736 4284692492
53.196331 1589.578 734 4285286680
54.304588 1589.578 734 4286076195
55.412846 1589.578 734 4286076706
56.521099 1589.578 734 4286274342
57.629356 1589.578 734 4286667564
58.737614 1589.578 734 4286864944
59.845871 1589.578 734 4286535979
60.954128 1589.578 734 4287391288
62.062386 1589.578 734 4286735436
63.170643 1589.578 734 4287524695
64.2789 1589.578 734 4287921491
65.387154 1589.578 734 4288118870
66.385323 1589.4496 733 4287790715
67.491745 1589.4496 733 4293777878
68.598167 1589.4496 733 4294307316
69.70459 1589.4496 733 4294967295
70.811012 1589.4496 733 4294966270
71.798164 1589.321 732 4294965755
72.902756 1589.321 732 4294965755
74.130272 1589.4496 733 4294966013
75.236694 1589.4496 733 4294834428
76.469727 1589.578 734 4294768635
77.57798 1589.578 734 4294834682
78.686241 1589.578 734 4294966011
79.794495 1589.578 734 4294768633
80.500916 1589.1926 731 4294571254
84.862389 1592.2753 755 4294373879
86.009171 1592.2753 755 4293781742
87.15596 1592.2753 755 4293912556
88.30275 1592.2753 755 4293715434
89.735779 1592.5321 757 4293583591
90.886238 1592.5321 757 4293583591
92.036697 1592.5321 757 4293582562
93.187157 1592.5321 757 4293845734
94.337616 1592.5321 757 4293912045
16.363302 1592.6477 767 4285945890
17.53211 1592.6477 767 4285814304
18.700918 1592.6477 767 4286206248
19.838531 1592.5211 766 4286206248
21.005505 1592.5211 766 4286337303
22.172478 1592.5211 766 4286205716
23.339449 1592.5211 766 4285878800
23.966972 1590.7487 752 4285944594
25.108257 1590.7487 752 4285812757
26.20734 1590.6221 751 4285812757
27.346788 1590.6221 751 4286009103
28.440367 1590.4954 750 4286074896
29.530275 1590.3688 749 4286139940
30.616514 1590.2422 748 4285942560
31.750458 1590.2422 748 4285419281
32.884403 1590.2422 748 4285485330
33.908257 1589.989 746 4285681699
34.867889 1589.6091 743 4285484576
35.992661 1589.6091 743 4285354001
37.117432 1589.6091 743 4285222672
38.179817 1589.4825 742 4285155604
39.302753 1589.4825 742 4285221398
40.359634 1589.356 741 4285155604
41.480736 1589.356 741 4285024275
42.532108 1589.2294 740 4284826129
43.651375 1589.2294 740 4284496907
44.697247 1589.1028 739 4284430602
45.814678 1589.1028 739 4284430602
46.855045 1588.9762 738 4284561152
47.970642 1588.9762 738 4284824064
49.086239 1588.9762 738 4284496396
50.036697 1588.7229 736 4284233224
51.148624 1588.7229 736 4284167179
52.34679 1588.8495 737 4284364557
53.372478 1588.7229 736 4284761371
54.484406 1588.7229 736 4286011182
55.596329 1588.7229 736 4286143524
56.708256 1588.7229 736 4286406439
57.820183 1588.7229 736 4286471481
58.737614 1588.4697 734 4286800445
59.845871 1588.4697 734 4287194425
60.954128 1588.4697 734 4287391803
62.062386 1588.4697 734 4287063883
63.170643 1588.4697 734 4287524434
64.2789 1588.4697 734 4287394892
65.387154 1588.4697 734 4288053079
66.385323 1588.3431 733 4288513671
67.491745 1588.3431 733 4294369504
68.598167 1588.3431 733 4294965755
69.588989 1588.2166 732 4294967295
70.693581 1588.2166 732 4294965759
71.678902 1588.0898 731 4294964731
72.781654 1588.0898 731 4294965498
73.884407 1588.0898 731 4294965755
74.98716 1588.0898 731 4294965498
76.216515 1588.2166 732 4294899705
77.449539 1588.3431 733 4294966009
78.42569 1588.2166 732 4294967295
79.398163 1588.0898 731 4294965498
80.500916 1588.0898 731 4294570740
86.284401 1591.3816 757 4293781738
87.43486 1591.3816 757 4293978349
88.58532 1591.3816 757 4293715434
89.735779 1591.3816 757 4293846252
91.031189 1591.5083 758 4293977838
92.183487 1591.5083 758 4293582562
93.335777 1591.5083 758 4293779941
15.218349 1591.6036 768 4285750042
16.38899 1591.6036 768 4286076706
17.53211 1591.4789 767 4285681949
18.730276 1591.6036 768 4286403098
19.838531 1591.3541 766 4286666013
21.005505 1591.3541 766 4286337053
22.172478 1591.3541 766 4286139417
23.339449 1591.3541 766 4285747996
24.005505 1589.7321 753 4285747996
25.148624 1589.7321 753 4285616407
26.249542 1589.6073 752 4285616407
27.390825 1589.6073 752 4285747481
28.486238 1589.4825 751 4285681687
29.625689 1589.4825 751 4285812757
30.715597 1589.3578 750 4285746964
31.85321 1589.3578 750 4285155845
32.937614 1589.233 749 4285616396
33.908257 1588.8588 746 4285485076
34.92477 1588.6091 744 4285616405
35.992661 1588.4844 743 4285419794
37.117432 1588.4844 743 4285354001
38.242203 1588.4844 743 4285222153
39.366974 1588.4844 743 4285222153
40.42569 1588.3596 742 4285155604
41.480736 1588.2349 741 4284958482
42.601833 1588.2349 741 4284826633
43.722935 1588.2349 741 4284497411
44.770641 1588.1101 740 4284758800
45.814678 1587.9854 739 4284627214
46.93211 1587.9854 739 4284626944
48.049541 1587.9854 739 4284824064
49.166973 1587.9854 739 4284300036
50.201836 1587.8606 738 4283905280
51.317432 1587.8606 738 4283642624
52.433029 1587.8606 738 4283840000
53.460552 1587.7358 737 4284694277
54.57431 1587.7358 737 4286339101
55.596329 1587.611 736 4286077979
56.801834 1587.7358 737 4286472736
57.820183 1587.611 736 4286538543
58.93211 1587.611 736 4286735922
60.14312 1587.7358 737 4286932797
61.155964 1587.611 736 4287064383
62.267891 1587.611 736 4287063883
63.170643 1587.3615 734 4287590227
64.2789 1587.3615 734 4287394642
65.387154 1587.3615 734 4288118622
66.385323 1587.2367 733 4289564296
67.491745 1587.2367 733 4294960093
68.484406 1587.1119 732 4294965247
69.588989 1587.1119 732 4294967039
70.693581 1587.1119 732 4294899705
71.678902 1586.9872 731 4294899705
72.660553 1586.8624 730 4294964985
73.761467 1586.8624 730 4294964985
74.862389 1586.8624 730 4294701556
76.089905 1586.9872 731 4294965242
77.192657 1586.9872 731 4294965755
78.29541 1586.9872 731 4294966013
79.398163 1586.9872 731 4294965499
80.500916 1586.9872 731 4294635763
86.284401 1590.2312 757 4294109421
87.43486 1590.2312 757 4294110191
88.58532 1590.2312 757 4293978349
89.878899 1590.356 758 4293912043
91.176147 1590.4807 759 4293912043
92.183487 1590.356 758 4293844964
93.335777 1590.356 758 4294108393
16.38899 1590.433 768 4286141986
17.53211 1590.3101 767 4286010400
18.730276 1590.433 768 4286600472
19.869724 1590.3101 767 4286929694
21.07156 1590.433 768 4286206237
22.20734 1590.3101 767 4286337566
23.339449 1590.1871 766 4285879343
24.506422 1590.1871 766 4285682221
25.148624 1588.589 753 4285878800
26.249542 1588.4661 752 4285878800
27.390825 1588.4661 752 4285878297
28.53211 1588.4661 752 4285812503
29.625689 1588.3431 751 4285813007
30.765137 1588.3431 751 4285747214
31.85321 1588.2202 750 4285746964
32.990826 1588.2202 750 4285746964
34.018349 1587.9744 748 4285616405
35.038532 1587.7284 746 4285616405
36.051376 1587.4825 744 4285420300
37.177982 1587.4825 744 4285354251
38.242203 1587.3596 743 4285222670
39.366974 1587.3596 743 4285091083
40.42569 1587.2367 742 4285024273
41.548622 1587.2367 742 4284826894
42.671558 1587.2367 742 4284563724
43.794495 1587.2367 742 4284497931
44.844036 1587.1138 741 4284694292
45.889908 1586.9908 740 4284628243
47.086239 1587.1138 741 4284824843
48.128441 1586.9908 740 4284759050
49.247707 1586.9908 740 4284956937
50.284405 1586.8679 739 4285285646
51.401836 1586.8679 739 4285023244
52.433029 1586.745 738 4284891401
53.548622 1586.745 738 4284826129
54.664219 1586.745 738 4286273575
55.688072 1586.6221 737 4286143001
56.801834 1586.6221 737 4286735395
58.011009 1586.745 738 4286670131
59.126606 1586.745 738 4286735924
60.242203 1586.745 738 4286932797
61.256882 1586.6221 737 4286998590
62.370644 1586.6221 737 4286998090
63.379818 1586.499 736 4288050778
64.2789 1586.2532 734 4287658334
65.387154 1586.2532 734 4288842609
66.385323 1586.1302 733 4289369480
67.491745 1586.1302 733 4294830555
68.484406 1586.0073 732 4294967295
69.473396 1585.8844 731 4294967295
70.576149 1585.8844 731 4294966013
71.559631 1585.7615 730 4294965498
72.660553 1585.7615 730 4294966522
73.761467 1585.7615 730 4294966522
74.862389 1585.7615 730 4294965755
75.963303 1585.7615 730 4294967295
77.064217 1585.7615 730 4294964985
78.165138 1585.7615 730 4294899192
79.266052 1585.7615 730 4294833399
80.366974 1585.7615 730 4294372848
81.332108 1585.6385 729 4293912045
86.559631 1589.3267 759 4293780203
87.71376 1589.3267 759 4294241005
88.867889 1589.3267 759 4294306799
90.165138 1589.4496 760 4294175212
91.321098 1589.4496 760 4293846248
92.477066 1589.4496 760 4293713896
93.633026 1589.4496 760 4293779689
16.440367 1589.5046 770 4286337568
17.559633 1589.2623 768 4286337568
18.730276 1589.2623 768 4286403357
19.869724 1589.1412 767 4286535199
21.038532 1589.1412 767 4286010398
22.172478 1589.0201 766 4285944605
23.339449 1589.0201 766 4285812772
24.46789 1588.899 765 4285812772
25.47156 1588.4147 761 4286142238
26.291742 1587.4459 753 4285747481
27.478899 1587.567 754 4286008340
28.577982 1587.4459 753 4286008340
29.673395 1587.3247 752 4286139919
30.814678 1587.3247 752 4286139919
31.955963 1587.3247 752 4285746964
33.044037 1587.2036 751 4285746964
34.128441 1587.0825 750 4285485076
35.152294 1586.8403 748 4285616405
36.110092 1586.4771 745 4285223948
37.177982 1586.356 744 4285026826
38.304588 1586.356 744 4285026574
39.431194 1586.356 744 4285026574
40.491745 1586.2349 743 4284958995
41.616512 1586.2349 743 4284761617
42.671558 1586.1138 742 4284695826
43.794495 1586.1138 742 4284235275
44.917431 1586.1138 742 4284562689
45.965137 1585.9927 741 4284825860
47.086239 1585.9927 741 4284956935
48.20734 1585.9927 741 4284956935
49.247707 1585.8716 740 4285480704
50.449543 1585.9927 741 4285875459
51.48624 1585.8716 740 4285743619
52.519264 1585.7505 739 4285809412
53.636696 1585.7505 739 4286008832
54.754128 1585.7505 739 4286929920
55.779816 1585.6294 738 4286406943
56.988991 1585.7505 739 4286538530
58.011009 1585.6294 738 4286670381
59.223854 1585.7505 739 4286736174
60.341286 1585.7505 739 4287260233
61.256882 1585.5083 737 4287128647
62.370644 1585.5083 737 4286997838
63.379818 1585.3872 736 4288116575
64.2789 1585.1449 734 4287657819
65.387154 1585.1449 734 4289105265
66.385323 1585.0238 733 4289502351
67.379814 1584.9027 732 4294897377
68.370644 1584.7816 731 4294967039
69.357796 1584.6605 730 4294967295
70.458717 1584.6605 730 4294966270
71.440369 1584.5394 729 4294966013
72.539452 1584.5394 729 4294966781
73.638535 1584.5394 729 4294966781
74.737617 1584.5394 729 4294964985
75.8367 1584.5394 729 4294899192
76.935783 1584.5394 729 4294833397
78.165138 1584.6605 730 4294767604
79.133942 1584.5394 729 4294569970
80.233025 1584.5394 729 4294372848
81.332108 1584.5394 729 4293845737
82.43119 1584.5394 729 4294108908
87.71376 1588.1725 759 4294437869
89.009171 1588.2936 760 4294503662
90.165138 1588.2936 760 4294175212
91.466057 1588.4147 761 4293846248
92.623856 1588.4147 761 4293188836
17.53211 1587.9725 767 4286206237
18.700918 1587.9725 767 4286403098
19.869724 1587.9725 767 4286468891
21.038532 1587.9725 767 4286336790
22.172478 1587.8533 766 4286205203
23.339449 1587.8533 766 4285942545
24.46789 1587.7339 765 4285942545
25.511927 1587.3761 762 4285942795
26.629358 1587.2568 761 4286008844
27.61101 1586.7798 757 4286074147
28.669725 1586.5413 755 4285942560
29.768806 1586.422 754 4286008844
30.86422 1586.3027 753 4286140173
31.955963 1586.1835 752 4285746964
33.097248 1586.1835 752 4285746964
34.183487 1586.0642 751 4285419281
35.266056 1585.9449 750 4285419281
36.28624 1585.7064 748 4285353992
37.238533 1585.3486 745 4285288199
38.366974 1585.3486 745 4285419264
39.431194 1585.2294 744 4285287936
40.557796 1585.2294 744 4285024273
41.616512 1585.1101 743 4285155858
42.741283 1585.1101 743 4285024275
43.866055 1585.1101 743 4284826640
44.990826 1585.1101 743 4284827136
46.115597 1585.1101 743 4285156097
47.163303 1584.9908 742 4285155330
48.28624 1584.9908 742 4285023744
49.409176 1584.9908 742 4285481746
50.532108 1584.9908 742 4285415953
51.570641 1584.8716 741 4285941000
52.691742 1584.8716 741 4288112169
53.72477 1584.7523 740 4289628928
54.844036 1584.7523 740 4290418181
55.963303 1584.7523 740 4289035858
56.988991 1584.6331 739 4288048963
58.106422 1584.6331 739 4287196959
59.223854 1584.6331 739 4286473236
60.341286 1584.6331 739 4286998090
61.458717 1584.6331 739 4287129676
62.473396 1584.5138 738 4287195733
63.484406 1584.3945 737 4288116835
64.491745 1584.2753 736 4287592539
65.387154 1584.0367 734 4289171572
66.385323 1583.9175 733 4290159514
67.267891 1583.679 731 4294964202
68.370644 1583.679 731 4294966783
69.357796 1583.5596 730 4294966783
70.341286 1583.4404 729 4294966527
71.440369 1583.4404 729 4294965757
72.539452 1583.4404 729 4294966522
73.638535 1583.4404 729 4294967036
74.612846 1583.321 728 4294833399
75.710091 1583.321 728 4294701556
76.807343 1583.321 728 4294373098
78.034859 1583.4404 729 4294109669
79.133942 1583.4404 729 4294174951
80.233025 1583.4404 729 4294240744
81.196327 1583.321 728 4293978090
82.293579 1583.321 728 4294306799
87.71376 1587.0183 759 4294175210
88.867889 1587.0183 759 4294241259
85.29908 1583.0825 726 4294109417
18.700918 1586.8037 767 4286599709
19.869724 1586.8037 767 4286665502
21.038532 1586.8037 767 4286403098
22.20734 1586.8037 767 4286337305
23.339449 1586.6863 766 4286073361
24.506422 1586.6863 766 4285547017
25.592661 1586.4514 764 4285678080
26.629358 1586.0991 761 4285941504
27.699083 1585.8643 759 4286073363
28.761467 1585.6294 757 4286139156
29.816513 1585.3945 755 4286205455
30.913761 1585.2771 754 4286271248
32.007339 1585.1597 753 4286008340
33.097248 1585.0422 752 4285876754
34.238533 1585.0422 752 4285485330
35.322937 1584.9248 751 4285485330
36.403671 1584.8074 750 4285419787
37.299084 1584.3376 746 4285419787
38.429359 1584.3376 746 4285615883
39.495415 1584.2202 745 4285550090
40.623852 1584.2202 745 4284761344
41.684402 1584.1028 744 4285156097
42.811008 1584.1028 744 4285221400
43.937614 1584.1028 744 4284958228
45.06422 1584.1028 744 4285023244
46.190826 1584.1028 744 4285154830
47.240368 1583.9854 743 4285155332
48.365139 1583.9854 743 4285418247
49.48991 1583.9854 743 4285745667
50.614677 1583.9854 743 4285416704
51.739449 1583.9854 743 4286467584
52.777981 1583.8679 742 4290020403
53.812843 1583.7505 741 4290415953
55.023853 1583.8679 742 4291797606
56.055046 1583.7505 741 4291798610
57.082569 1583.6331 740 4289956406
58.201836 1583.6331 740 4287458359
59.321102 1583.6331 740 4286340135
60.440369 1583.6331 740 4287062087
61.559631 1583.6331 740 4287456844
62.678898 1583.6331 740 4287129938
63.693577 1583.5156 739 4288051039
64.811012 1583.5156 739 4287461732
65.928444 1583.5156 739 4289106814
66.055046 1582.4587 730 4290948264
67.15596 1582.4587 730 4294965492
68.256882 1582.4587 730 4294967039
69.242203 1582.3413 729 4294967039
70.223854 1582.2239 728 4294966270
71.321098 1582.2239 728 4294965499
72.41835 1582.2239 728 4294965755
73.515594 1582.2239 728 4294767863
74.488075 1582.1064 727 4294635763
75.456879 1581.989 726 4294569970
76.550461 1581.989 726 4293978088
77.904587 1582.2239 728 4293714659
79.001831 1582.2239 728 4293516769
80.099083 1582.2239 728 4293779941
81.060547 1582.1064 727 4293779941
82.15596 1582.1064 727 4293845734
83.111923 1581.989 726 4293714659
84.205505 1581.989 726 4293648866
85.29908 1581.989 726 4293648870
17.559633 1585.7505 768 4286141207
18.730276 1585.7505 768 4286337568
19.900917 1585.7505 768 4286337568
21.038532 1585.6349 767 4286337305
22.20734 1585.6349 767 4286403098
23.376146 1585.6349 767 4285942545
24.506422 1585.5193 766 4285087236
25.592661 1585.2881 764 4285350400
26.67156 1585.0569 762 4285810949
27.74312 1584.8257 760 4285942547
28.85321 1584.7101 759 4286666013
29.911926 1584.4789 757 4286008340
30.963303 1584.2477 755 4286139669
32.058716 1584.1321 754 4286008353
33.150459 1584.0165 753 4285942560
34.293579 1584.0165 753 4285485076
35.379818 1583.9009 752 4285616405
36.462387 1583.7853 751 4285813007
37.541283 1583.6697 750 4285813007
38.554127 1583.4385 748 4285616407
39.688072 1583.4385 748 4285419285
40.689907 1583.2073 746 4285287693
41.752293 1583.0918 745 4285485328
42.880733 1583.0918 745 4285485076
44.009174 1583.0918 745 4285485076
45.137615 1583.0918 745 4285286430
46.266056 1583.0918 745 4285088794
47.317432 1582.9762 744 4285679391
48.444038 1582.9762 744 4286468650
49.48991 1582.8606 743 4286601497
50.614677 1582.8606 743 4287259170
51.739449 1582.8606 743 4287718924
52.777981 1582.745 742 4289824557
53.900917 1582.745 742 4291267678
55.023853 1582.745 742 4294958510
56.14679 1582.745 742 4294959494
57.269726 1582.745 742 4294963864
58.297249 1582.6294 741 4293448832
59.41835 1582.6294 741 4286211345
60.638531 1582.745 742 4287062087
61.761467 1582.745 742 4287785553
62.884403 1582.745 742 4287588946
64.216515 1582.9762 744 4288510048
65.343117 1582.9762 744 4287658864
66.686241 1583.2073 746 4289698447
66.820183 1581.011 727 4294967295
67.801834 1580.8954 726 4294967295
68.895416 1580.8954 726 4294967294
70.106422 1581.011 727 4294966267
71.201836 1581.011 727 4294899703
72.297249 1581.011 727 4294438389
73.392662 1581.011 727 4294174960
74.488075 1581.011 727 4294109421
75.456879 1580.8954 726 4294109421
76.550461 1580.8954 726 4294108906
77.774315 1581.011 727 4293977320
78.869728 1581.011 727 4293648357
79.965141 1581.011 727 4293845737
80.924774 1580.8954 726 4293780193
82.018349 1580.8954 726 4293845986
83.111923 1580.8954 726 4293714148
84.064217 1580.7798 725 4293648355
85.15596 1580.7798 725 4293714150
86.247704 1580.7798 725 4293648357
18.78899 1584.8074 770 4285616676
19.963303 1584.8074 770 4285682469
21.07156 1584.5798 768 4286206237
22.242203 1584.5798 768 4286337566
23.412844 1584.5798 768 4286008340
24.544954 1584.4661 767 4285218567
25.633028 1584.2385 765 4285941763
26.67156 1583.8972 762 4285941763
27.787155 1583.7834 761 4285942547
28.899082 1583.6697 760 4286008340
30.007339 1583.5559 759 4286008340
31.062386 1583.3285 757 4286139669
32.110092 1583.101 755 4286008853
33.256882 1583.101 755 4285943060
34.348625 1582.9872 754 4285746964
35.436699 1582.8734 753 4285746964
36.521099 1582.7596 752 4285812757
37.601833 1582.6459 751 4285812757
38.678898 1582.5321 750 4285681699
39.752293 1582.4183 749 4285484576
40.822018 1582.3046 748 4285615883
41.820183 1582.077 746 4285747212
42.950459 1582.077 746 4285485076
44.080734 1582.077 746 4285616405
45.21101 1582.077 746 4285747481
46.266056 1581.9633 745 4285286930
47.394497 1581.9633 745 4286072331
48.522934 1581.9633 745 4287059227
49.651375 1581.9633 745 4286993952
50.779816 1581.9633 745 4288178225
51.739449 1581.7358 743 4288048157
52.86422 1581.7358 743 4289495603
53.988991 1581.7358 743 4291331143
55.113762 1581.7358 743 4294956954
56.238533 1581.7358 743 4294959259
57.363304 1581.7358 743 4294961315
58.392662 1581.6221 742 4294828490
59.612843 1581.7358 743 4287854432
60.836697 1581.8495 744 4286929957
62.06422 1581.9633 745 4287916852
63.192661 1581.9633 745 4287523399
64.42569 1582.077 746 4288444501
65.555962 1582.077 746 4287659114
66.686241 1582.077 746 4289830282
68.256882 1582.5321 750 4290883764
66.820183 1579.9156 727 4294967039
67.915596 1579.9156 727 4294967295
69.011009 1579.9156 727 4294900989
69.988991 1579.8019 726 4294966011
71.082565 1579.8019 726 4294637047
72.297249 1579.9156 727 4294175214
73.392662 1579.9156 727 4294175214
74.488075 1579.9156 727 4293845737
75.456879 1579.8019 726 4293845737
76.550461 1579.8019 726 4293844964
77.644035 1579.8019 726 4293910757
78.737617 1579.8019 726 4293647842
79.831192 1579.8019 726 4293647842
80.924774 1579.8019 726 4293581276
82.018349 1579.8019 726 4293712863
83.111923 1579.8019 726 4293384667
84.064217 1579.6881 725 4293647840
85.15596 1579.6881 725 4293713896
86.247704 1579.6881 725 4293713896
19.963303 1583.6331 770 4286205735
21.137615 1583.6331 770 4286206237
22.242203 1583.4092 768 4286074395
23.376146 1583.2972 767 4286008855
24.506422 1583.1853 766 4285153547
25.633028 1583.0734 765 4285415447
26.755962 1582.9614 764 4286007840
27.787155 1582.6257 761 4285942795
28.899082 1582.5138 760 4285942795
30.055046 1582.5138 760 4285942545
31.161469 1582.4019 759 4286139923
32.212845 1582.178 757 4286008853
33.256882 1581.9541 755 4285943060
34.348625 1581.8422 754 4285746964
35.49358 1581.8422 754 4285746964
36.579815 1581.7302 753 4285746964
37.662384 1581.6184 752 4285878550
38.741283 1581.5065 751 4286139690
39.816513 1581.3945 750 4286073897
40.888073 1581.2826 749 4285942795
41.955963 1581.1707 748 4286140173
43.089909 1581.1707 748 4286074649
44.223854 1581.1707 748 4286074649
45.21101 1580.9468 746 4286666267
46.341286 1580.9468 746 4286732061
47.471561 1580.9468 746 4286731811
48.522934 1580.8348 745 4286666018
49.651375 1580.8348 745 4286863147
50.779816 1580.8348 745 4288310593
51.908257 1580.8348 745 4288573220
53.036697 1580.8348 745 4289033771
53.988991 1580.611 743 4290083586
55.113762 1580.611 743 4292978734
56.238533 1580.611 743 4294363227
57.363304 1580.611 743 4294955364
58.678898 1580.8348 745 4293971594
59.807339 1580.8348 745 4289826635
61.034863 1580.9468 746 4287852874
62.366974 1581.1707 748 4287984204
63.295414 1580.9468 746 4287526485
64.634865 1581.1707 748 4288184415
65.875229 1581.2826 749 4288184165
67.119263 1581.3945 750 4290289285
68.256882 1581.3945 750 4291672253
69.394493 1581.3945 750 4294966783
70.532112 1581.3945 750 4294966783
68.895416 1578.7083 726 4294175212
69.988991 1578.7083 726 4293979116
71.201836 1578.8202 727 4294044909
72.297249 1578.8202 727 4294175214
73.392662 1578.8202 727 4294175214
74.363304 1578.7083 726 4294042859
75.456879 1578.7083 726 4294108908
76.42202 1578.5963 725 4293845734
77.644035 1578.7083 726 4293977320
78.605507 1578.5963 725 4293647844
79.69725 1578.5963 725 4293581795
80.788994 1578.5963 725 4293582049
82.018349 1578.7083 726 4293779171
82.972481 1578.5963 725 4293516767
84.064217 1578.5963 725 4293582560
85.15596 1578.5963 725 4293713896
86.247704 1578.5963 725 4293648103
87.339447 1578.5963 725 4293451494
22.20734 1582.1284 767 4286139942
23.376146 1582.1284 767 4286008340
24.506422 1582.0183 766 4285416203
25.633028 1581.9082 765 4284953856
26.67156 1581.578 762 4286138127
27.787155 1581.4679 761 4285942795
28.944954 1581.4679 761 4286008844
30.055046 1581.3578 760 4286008340
31.161469 1581.2477 759 4286008340
32.264221 1581.1376 758 4286008855
33.363304 1581.0275 757 4286008855
34.403671 1580.8074 755 4285942795
35.49358 1580.6973 754 4285877002
36.579815 1580.5872 753 4286008340
37.662384 1580.4771 752 4286139669
38.741283 1580.3669 751 4286139942
39.880733 1580.3669 751 4286008099
40.954128 1580.2568 750 4286139910
42.023853 1580.1467 749 4286205703
43.089909 1580.0367 748 4286270994
44.295414 1580.1467 749 4286665752
45.3578 1580.0367 748 4286601245
46.491745 1580.0367 748 4286798367
47.625687 1580.0367 748 4286797856
48.601833 1579.8165 746 4286666013
49.732109 1579.8165 746 4287324200
50.862385 1579.8165 746 4288245302
