# .PCD v0.7 - Point Cloud Data file format
VERSION 0.7
FIELDS x y z rgb
SIZE 4 4 4 4
TYPE F F F U
COUNT 1 1 1 1
WIDTH 1374
HEIGHT 1
VIEWPOINT 0 0 0 1 0 0 0
POINTS 1374
DATA ascii
39.633026 1584.6605 730 4285944596
40.801834 1584.7816 731 4286076182
41.974312 1584.9027 732 4285879834
43.078899 1584.9027 732 4285879834
44.256882 1585.0238 733 4285944605
45.438534 1585.1449 734 4285944605
46.546787 1585.1449 734 4286205983
47.655045 1585.1449 734 4286600741
48.763302 1585.1449 734 4286469432
49.871559 1585.1449 734 4286337846
50.979816 1585.1449 734 4286141496
52.088074 1585.1449 734 4286141496
53.196331 1585.1449 734 4285814332
54.304588 1585.1449 734 4285814332
55.321102 1585.0238 733 4284831032
56.427525 1585.0238 733 4283120414
57.533943 1585.0238 733 4280427292
58.640366 1585.0238 733 4280953636
59.746788 1585.0238 733 4283711270
60.85321 1585.0238 733 4285290303
61.959633 1585.0238 733 4285157703
63.066055 1585.0238 733 4285618254
64.172478 1585.0238 733 4285226319
65.387154 1585.1449 734 4286476643
66.495415 1585.1449 734 4288185490
67.603668 1585.1449 734 4294633204
68.711929 1585.1449 734 4294965499
69.820183 1585.1449 734 4294967295
71.1633 1585.3872 736 4294965499
72.394493 1585.5083 737 4294966783
73.629356 1585.6294 738 4294967039
74.867889 1585.7505 739 4294966527
76.234863 1585.9927 741 4294967295
77.355965 1585.9927 741 4294967295
78.605507 1586.1138 742 4294965757
79.728439 1586.1138 742 4294965757
80.98349 1586.2349 743 4294899192
82.108253 1586.2349 743 4294964985
83.640366 1586.5981 746 4294701558
85.183487 1586.9614 749 4294898938
86.598167 1587.2036 751 4294833912
87.878899 1587.3247 752 4294439154
89.1633 1587.4459 753 4294175214
90.451378 1587.567 754 4294175214
19.651377 1587.1376 760 4284761869
20.741285 1586.899 758 4284496925
21.893578 1586.899 758 4284365339
28.480734 1583.2018 727 4285352988
29.576147 1583.2018 727 4285484574
30.620184 1583.0825 726 4285746964
31.713762 1583.0825 726 4285944344
32.862385 1583.2018 727 4285485076
33.957798 1583.2018 727 4285682198
35.053211 1583.2018 727 4285616655
36.148624 1583.2018 727 4285616655
37.306423 1583.321 728 4285747462
38.403671 1583.321 728 4285879304
39.566971 1583.4404 729 4285813274
40.666054 1583.4404 729 4286142238
41.974312 1583.7982 732 4285946127
43.078899 1583.7982 732 4285814541
44.256882 1583.9175 733 4285682471
45.438534 1584.0367 734 4285813800
46.546787 1584.0367 734 4285813800
47.812843 1584.2753 736 4286011436
48.92477 1584.2753 736 4285223719
50.036697 1584.2753 736 4283842066
51.148624 1584.2753 736 4283511329
52.260551 1584.2753 736 4283313693
53.196331 1584.0367 734 4283708983
54.304588 1584.0367 734 4283972411
55.412846 1584.0367 734 4283187506
56.521099 1584.0367 734 4283516215
57.533943 1583.9175 733 4283715386
58.640366 1583.9175 733 4284570439
59.746788 1583.9175 733 4285750854
60.954128 1584.0367 734 4285882183
62.062386 1584.0367 734 4285158744
63.170643 1584.0367 734 4285882466
64.2789 1584.0367 734 4286079831
65.387154 1584.0367 734 4287658864
66.825691 1584.3945 737 4288776596
67.939453 1584.3945 737 4294960881
68.939453 1584.2753 736 4294967294
70.166969 1584.3945 737 4294967295
71.280731 1584.3945 737 4294967295
72.513763 1584.5138 738 4294966781
73.871559 1584.7523 740 4294967039
74.990829 1584.7523 740 4294966527
76.359634 1584.9908 742 4294966013
77.482567 1584.9908 742 4294966013
78.733948 1585.1101 743 4294966271
79.858719 1585.1101 743 4294966527
80.98349 1585.1101 743 4294966270
82.242203 1585.2294 744 4294966527
84.047707 1585.8257 749 4294965244
85.458717 1586.0642 751 4294966015
86.737617 1586.1835 752 4294833912
88.02018 1586.3027 753 4294504947
89.1633 1586.3027 753 4294373109
90.306419 1586.3027 753 4294373109
20.741285 1585.7468 758 4284760085
28.433027 1581.989 726 4285156636
29.526606 1581.989 726 4285222685
30.620184 1581.989 726 4285485076
31.713762 1581.989 726 4285682198
32.807339 1581.989 726 4285616655
33.900917 1581.989 726 4285682704
35.053211 1582.1064 727 4285682201
36.148624 1582.1064 727 4285682201
37.244038 1582.1064 727 4285682450
38.339451 1582.1064 727 4285748244
39.500916 1582.2239 728 4285747996
40.666054 1582.3413 729 4285879582
41.974312 1582.6936 732 4285880338
43.150459 1582.811 733 4286077460
44.330276 1582.9285 734 4285682984
45.588989 1583.1633 736 4285682984
46.777981 1583.2808 737 4285421093
47.970642 1583.3982 738 4285092128
49.005505 1583.2808 737 4284173620
50.201836 1583.3982 738 4281804816
51.317432 1583.3982 738 4281411357
52.34679 1583.2808 737 4282266665
53.460552 1583.2808 737 4282726966
54.57431 1583.2808 737 4282726966
55.596329 1583.1633 736 4281805865
56.521099 1582.9285 734 4282332209
57.629356 1582.9285 734 4284566345
58.737614 1582.9285 734 4285618777
59.845871 1582.9285 734 4286145361
60.954128 1582.9285 734 4285947726
62.267891 1583.1633 736 4284831314
63.379818 1583.1633 736 4285489244
64.491745 1583.1633 736 4286341709
65.711929 1583.2808 737 4288183913
66.935783 1583.3982 738 4289433235
68.051376 1583.3982 738 4294962674
69.166969 1583.3982 738 4294967295
70.398163 1583.5156 739 4294967295
71.515594 1583.5156 739 4294967037
72.752296 1583.6331 740 4294967037
73.992661 1583.7505 741 4294966783
75.236694 1583.8679 742 4294966783
76.484406 1583.9854 743 4294964985
77.735779 1584.1028 744 4294965757
78.862389 1584.1028 744 4294965757
80.249542 1584.3376 746 4294965499
81.644035 1584.5725 748 4294965498
82.911926 1584.6899 749 4294965498
84.319267 1584.9248 751 4294636534
85.733948 1585.1597 753 4294767863
86.877068 1585.1597 753 4294044909
88.161469 1585.2771 754 4294374131
89.1633 1585.1597 753 4294636534
26.245872 1580.8954 726 4285353488
27.339449 1580.8954 726 4285287695
28.433027 1580.8954 726 4285419281
29.526606 1580.8954 726 4285485330
30.620184 1580.8954 726 4285746962
31.660551 1580.7798 725 4285812755
32.807339 1580.8954 726 4285616655
33.900917 1580.8954 726 4285682704
34.994495 1580.8954 726 4285616405
36.088074 1580.8954 726 4285485076
37.244038 1581.011 727 4285747481
38.339451 1581.011 727 4285813274
39.434864 1581.011 727 4285682469
40.598164 1581.1266 728 4285485089
41.974312 1581.589 732 4285814793
43.222019 1581.8202 734 4286077708
44.550457 1582.167 737 4286075952
45.739449 1582.2826 738 4286142002
46.855045 1582.2826 738 4285421093
47.970642 1582.2826 738 4283578889
49.086239 1582.2826 738 4282000444
50.201836 1582.2826 738 4281539893
51.317432 1582.2826 738 4282986546
52.433029 1582.2826 738 4285552472
53.548622 1582.2826 738 4284896814
54.57431 1582.167 737 4283383575
55.688072 1582.167 737 4282331457
56.708256 1582.0514 736 4281870906
57.820183 1582.0514 736 4282396998
58.93211 1582.0514 736 4283712858
60.044037 1582.0514 736 4284962116
61.155964 1582.0514 736 4285620303
62.473396 1582.2826 738 4285684311
63.588989 1582.2826 738 4286210655
64.811012 1582.3982 739 4286538071
66.036697 1582.5138 740 4288051310
67.15596 1582.5138 740 4289499532
68.1633 1582.3982 739 4294964721
69.280731 1582.3982 739 4294967295
70.513763 1582.5138 740 4294967295
71.750458 1582.6294 741 4294967035
72.871559 1582.6294 741 4294966778
74.234863 1582.8606 743 4294966527
75.359634 1582.8606 743 4294967039
76.609177 1582.9762 744 4294965498
77.862389 1583.0918 745 4294965498
78.990829 1583.0918 745 4294965496
80.510094 1583.4385 748 4294965496
81.776146 1583.5541 749 4294899705
83.179817 1583.7853 751 4294899705
84.455048 1583.9009 752 4294636788
85.871559 1584.1321 754 4294768117
87.01651 1584.1321 754 4294569716
88.30275 1584.2477 755 4294767352
89.449539 1584.2477 755 4294636534
25.194496 1579.9156 727 4285746962
26.245872 1579.8019 726 4285484574
27.293577 1579.6881 725 4285484574
28.385321 1579.6881 725 4285615883
29.477064 1579.6881 725 4285615883
30.568808 1579.6881 725 4285746962
31.660551 1579.6881 725 4285812755
32.752293 1579.6881 725 4285944596
33.844036 1579.6881 725 4285944596
34.93578 1579.6881 725 4285419281
36.088074 1579.8019 726 4285485330
37.181652 1579.8019 726 4286010391
38.27523 1579.8019 726 4286076184
39.368809 1579.8019 726 4285812757
40.530273 1579.9156 727 4285812757
42.322937 1581.0532 737 4286076434
43.508255 1581.167 738 4286273556
44.697247 1581.2808 739 4286076204
45.889908 1581.3945 740 4286207791
46.93211 1581.2808 739 4285486632
48.049541 1581.2808 739 4283315720
49.166973 1581.2808 739 4282129452
50.284405 1581.2808 739 4282129452
51.401836 1581.2808 739 4283839286
52.519264 1581.2808 739 4286273627
53.548622 1581.167 738 4285487175
54.664219 1581.167 738 4284237364
55.688072 1581.0532 737 4281873454
56.801834 1581.0532 737 4281215781
57.915596 1581.0532 737 4280557345
59.029358 1581.0532 737 4282399549
60.242203 1581.167 738 4284304702
61.559631 1581.3945 740 4285488976
62.781651 1581.5083 741 4285881420
63.902752 1581.5083 741 4286736728
65.023849 1581.5083 741 4288182621
66.144951 1581.5083 741 4288379743
67.266052 1581.5083 741 4290024861
68.387154 1581.5083 741 4294965247
69.508255 1581.5083 741 4294967295
70.629356 1581.5083 741 4294967295
71.750458 1581.5083 741 4294967295
72.990829 1581.6221 742 4294967294
74.234863 1581.7358 743 4294965242
75.359634 1581.7358 743 4294965757
76.609177 1581.8495 744 4294965244
77.988991 1582.077 746 4294833658
79.376144 1582.3046 748 4294834680
80.510094 1582.3046 748 4294703094
81.776146 1582.4183 749 4294570740
83.179817 1582.6459 751 4294570740
84.590828 1582.8734 753 4294701556
86.009171 1583.101 755 4294701556
87.43486 1583.3285 757 4294701556
88.58532 1583.3285 757 4294833399
89.735779 1583.3285 757 4294569970
24.058716 1578.7083 726 4285615390
25.110092 1578.5963 725 4285615390
26.201836 1578.5963 725 4285615390
27.293577 1578.5963 725 4285615390
28.337614 1578.4844 724 4285615881
29.427523 1578.4844 724 4285879052
30.568808 1578.5963 725 4285746964
31.60734 1578.4844 724 4285615379
32.697247 1578.4844 724 4285813257
33.844036 1578.5963 725 4285879050
34.93578 1578.5963 725 4285814289
36.027523 1578.5963 725 4285814289
37.181652 1578.7083 726 4285879050
38.27523 1578.7083 726 4285944844
39.368809 1578.7083 726 4285944855
40.530273 1578.8202 727 4286076697
41.625687 1578.8202 727 4286010650
43.722935 1580.3872 741 4286010650
44.844036 1580.3872 741 4286076193
45.965137 1580.3872 741 4286141986
47.086239 1580.3872 741 4285289771
48.20734 1580.3872 741 4283315981
49.247707 1580.2753 740 4281607734
50.366974 1580.2753 740 4281410355
51.401836 1580.1633 739 4281804838
52.519264 1580.1633 739 4283844164
53.636696 1580.1633 739 4284962607
54.664219 1580.0514 738 4285949502
55.779816 1580.0514 738 4285225776
56.895412 1580.0514 738 4284370468
58.106422 1580.1633 739 4283188547
59.223854 1580.1633 739 4282465081
60.440369 1580.2753 740 4284896071
61.660549 1580.3872 741 4286804068
62.781651 1580.3872 741 4287394892
63.902752 1580.3872 741 4287197770
65.130272 1580.499 742 4287262793
66.253212 1580.499 742 4288842081
67.376144 1580.499 742 4290487213
68.387154 1580.3872 741 4294966783
69.508255 1580.3872 741 4294967295
70.629356 1580.3872 741 4294967295
71.867889 1580.499 742 4294967295
73.110092 1580.611 743 4294967295
74.234863 1580.611 743 4294967295
75.728439 1580.9468 746 4294966524
76.858719 1580.9468 746 4294966015
78.242203 1581.1707 748 4294965244
79.376144 1581.1707 748 4294833908
80.510094 1581.1707 748 4294570992
81.908257 1581.3945 750 4294569716
83.447708 1581.7302 753 4294372594
84.862389 1581.9541 755 4294372594
86.42202 1582.2899 758 4294701558
87.57431 1582.2899 758 4294767350
88.867889 1582.4019 759 4294965757
90.737617 1582.9614 764 4294966009
92.045868 1583.0734 765 4294834680
22.888073 1577.3945 724 4285810957
24.058716 1577.6146 726 4285876765
25.110092 1577.5046 725 4285942558
26.201836 1577.5046 725 4285680933
27.293577 1577.5046 725 4285615140
28.337614 1577.3945 724 4286139919
29.427523 1577.3945 724 4286205968
30.517431 1577.3945 724 4285813007
31.60734 1577.3945 724 4285813007
32.6422 1577.2844 723 4285747212
33.787155 1577.3945 724 4285944848
34.93578 1577.5046 725 4285748244
36.027523 1577.5046 725 4285682450
37.181652 1577.6146 726 4285813007
38.27523 1577.6146 726 4286076436
39.368809 1577.6146 726 4285879834
40.462387 1577.6146 726 4285945627
42.671558 1579.3761 742 4285945377
43.866055 1579.4862 743 4285945377
44.917431 1579.3761 742 4286076193
46.040367 1579.3761 742 4286405158
47.163303 1579.3761 742 4285158183
48.28624 1579.3761 742 4282658305
49.328442 1579.2661 741 4280622886
50.449543 1579.2661 741 4280820521
51.48624 1579.156 740 4280231966
52.519264 1579.0459 739 4282271292
53.636696 1579.0459 739 4284173114
54.754128 1579.0459 739 4285752402
55.871559 1579.0459 739 4286144078
56.988991 1579.0459 739 4284959804
58.106422 1579.0459 739 4283582792
59.321102 1579.156 740 4283385412
60.539448 1579.2661 741 4285290055
61.660549 1579.2661 741 4287132259
62.781651 1579.2661 741 4287984474
63.902752 1579.2661 741 4287326288
65.130272 1579.3761 742 4286011965
66.361465 1579.4862 743 4289038187
67.486237 1579.4862 743 4291406776
68.499084 1579.3761 742 4294966527
69.735779 1579.4862 743 4294967295
70.744957 1579.3761 742 4294966270
71.985321 1579.4862 743 4294966783
73.229355 1579.5963 744 4294967039
74.598167 1579.8165 746 4294967295
75.974312 1580.0367 748 4294966526
77.357796 1580.2568 750 4294833912
78.495415 1580.2568 750 4294570740
79.761467 1580.3669 751 4294372846
80.900917 1580.3669 751 4294372846
82.304588 1580.5872 753 4294503664
83.715599 1580.8074 755 4294437871
85.133942 1581.0275 757 4294306799
86.559631 1581.2477 759 4294767350
87.71376 1581.2477 759 4294636534
88.867889 1581.2477 759 4294767863
21.798164 1576.3046 724 4285745436
22.888073 1576.3046 724 4285942558
23.977982 1576.3046 724 4285615390
25.06789 1576.3046 724 4285615390
26.157799 1576.3046 724 4285484588
27.201836 1576.1963 723 4285418794
28.289907 1576.1963 723 4285813007
29.377981 1576.1963 723 4285878800
30.466055 1576.1963 723 4286074898
31.554129 1576.1963 723 4286074898
32.6422 1576.1963 723 4285878800
33.730274 1576.1963 723 4285944594
34.877064 1576.3046 724 4285747996
36.027523 1576.4128 725 4285747996
37.119267 1576.4128 725 4285814039
38.21101 1576.4128 725 4285945881
39.302753 1576.4128 725 4285945627
40.394497 1576.4128 725 4286076956
42.880733 1578.578 745 4286141998
43.937614 1578.4697 744 4286602549
45.06422 1578.4697 744 4286143524
46.190826 1578.4697 744 4286274853
47.240368 1578.3615 743 4284764964
48.365139 1578.3615 743 4282001664
49.48991 1578.3615 743 4281082935
50.532108 1578.2532 742 4281872450
51.570641 1578.1449 741 4283187000
52.691742 1578.1449 741 4284766289
53.812843 1578.1449 741 4285158212
54.844036 1578.0367 740 4284303160
56.055046 1578.1449 741 4283777856
57.176147 1578.1449 741 4283646270
58.297249 1578.1449 741 4283974469
59.515594 1578.2532 742 4285290329
60.638531 1578.2532 742 4286143044
61.761467 1578.2532 742 4287129940
62.884403 1578.2532 742 4287457106
64.007339 1578.2532 742 4287128141
65.236694 1578.3615 743 4286669137
66.469727 1578.4697 744 4290485131
67.486237 1578.3615 743 4291738048
68.611008 1578.3615 743 4294967295
69.735779 1578.3615 743 4294967295
70.86055 1578.3615 743 4294899192
72.220184 1578.578 745 4294833399
73.467888 1578.6863 746 4294635763
74.84037 1578.9027 748 4294701558
76.097244 1579.011 749 4294767352
77.482567 1579.2275 751 4294701810
78.622017 1579.2275 751 4294569968
79.889908 1579.3358 752 4294372848
81.031189 1579.3358 752 4294372848
82.436699 1579.5522 754 4294372848
83.98349 1579.8771 757 4294372848
85.269722 1579.9854 758 4294306799
86.69725 1580.2018 760 4294635763
87.85321 1580.2018 760 4294372848
89.009171 1580.2018 760 4294175212
90.165138 1580.2018 760 4294175210
21.834862 1575.321 725 4285810957
22.888073 1575.2147 724 4285942799
23.977982 1575.2147 724 4285419294
25.06789 1575.2147 724 4285353501
26.113762 1575.1083 723 4285419044
27.201836 1575.1083 723 4285353251
28.289907 1575.1083 723 4285747212
29.377981 1575.1083 723 4285878798
30.466055 1575.1083 723 4286074395
31.500917 1575.0018 722 4286337566
32.587154 1575.0018 722 4286010398
33.730274 1575.1083 723 4285944605
34.818348 1575.1083 723 4285485076
35.966972 1575.2147 724 4285879834
37.119267 1575.321 725 4285617693
38.21101 1575.321 725 4285617693
39.368809 1575.4275 726 4285945627
41.820183 1577.5559 746 4286076956
42.880733 1577.4496 745 4286141986
44.009174 1577.4496 745 4286273829
45.06422 1577.3431 744 4286012199
46.190826 1577.3431 744 4286077992
47.240368 1577.2367 743 4284698656
48.365139 1577.2367 743 4282198528
49.48991 1577.2367 743 4281475616
50.532108 1577.1302 742 4282396718
51.655045 1577.1302 742 4284696371
52.777981 1577.1302 742 4286538319
53.900917 1577.1302 742 4285618504
54.933945 1577.0238 741 4283184163
56.14679 1577.1302 742 4281542943
57.269726 1577.1302 742 4282595887
58.488075 1577.2367 743 4284038714
59.612843 1577.2367 743 4285815125
60.836697 1577.3431 744 4287061837
61.862385 1577.2367 743 4286206528
62.987156 1577.2367 743 4286467397
64.111923 1577.2367 743 4287914843
65.343117 1577.3431 744 4287195231
66.57798 1577.4496 745 4291011225
67.706421 1577.4496 745 4292329926
68.722939 1577.3431 744 4294966015
69.963303 1577.4496 745 4294967039
71.207336 1577.5559 746 4294899192
72.572479 1577.7688 748 4294767350
73.825691 1577.8752 749 4294569970
75.082565 1577.9817 750 4294175983
76.343117 1578.0881 751 4294307312
77.607338 1578.1945 752 4294504947
78.748627 1578.1945 752 4294439154
80.018349 1578.3009 753 4294306799
81.29174 1578.4073 754 4294241005
82.833031 1578.7266 757 4294175214
84.117432 1578.833 758 4293977836
85.405502 1578.9395 759 4294043113
86.834862 1579.1523 761 4294174699
87.992661 1579.1523 761 4294241005
89.150459 1579.1523 761 4293978090
90.880737 1579.578 765 4293648355
21.798164 1574.1248 724 4286073867
22.849541 1574.0201 723 4286073867
23.937614 1574.0201 723 4285942545
25.025688 1574.0201 723 4285942545
26.113762 1574.0201 723 4285615633
27.155964 1573.9156 722 4285549840
28.242203 1573.9156 722 4285811463
29.32844 1573.9156 722 4285943049
30.414679 1573.9156 722 4285942560
31.500917 1573.9156 722 4286337062
32.587154 1573.9156 722 4286206248
33.673393 1573.9156 722 4286074406
34.818348 1574.0201 723 4285812772
35.966972 1574.1248 724 4285944357
37.119267 1574.2294 725 4285879832
39.816513 1576.844 750 4285879832
40.888073 1576.7395 749 4285879834
41.955963 1576.6349 748 4285945627
42.950459 1576.4257 746 4286010650
44.080734 1576.4257 746 4285813528
45.21101 1576.4257 746 4285749281
46.266056 1576.321 745 4286143783
47.317432 1576.2166 744 4284961060
48.522934 1576.321 745 4282460928
49.570641 1576.2166 744 4281738037
50.697247 1576.2166 744 4283448655
51.739449 1576.1119 743 4284894763
52.86422 1576.1119 743 4286144830
53.988991 1576.1119 743 4285158703
55.113762 1576.1119 743 4283382035
56.330276 1576.2166 744 4283579462
57.363304 1576.1119 743 4284500564
58.583485 1576.2166 744 4285221179
59.710091 1576.2166 744 4286010439
60.93578 1576.321 745 4286271037
62.06422 1576.321 745 4286139451
63.089909 1576.2166 744 4286272345
64.216515 1576.2166 744 4287983220
65.449539 1576.321 745 4287524727
66.57798 1576.321 745 4291143342
67.706421 1576.321 745 4292199364
68.834862 1576.321 745 4294964726
69.963303 1576.321 745 4294833649
71.207336 1576.4257 746 4293912547
72.572479 1576.6349 748 4294109417
73.825691 1576.7395 749 4294569968
75.082565 1576.844 750 4294109417
76.343117 1576.9486 751 4293912295
77.732109 1577.1578 753 4294109417
78.875229 1577.1578 753 4294109417
80.14679 1577.2623 754 4293912043
81.42202 1577.3669 755 4293846250
82.965141 1577.6808 758 4293977068
84.251373 1577.7853 759 4293845739
86.084404 1578.3082 764 4293845734
87.247704 1578.3082 764 4293845734
88.132111 1578.0991 762 4294043113
89.715599 1578.4128 765 4294043113
90.880737 1578.4128 765 4293648616
20.708258 1573.0349 724 4286270224
21.761467 1572.9321 723 4286204418
22.849541 1572.9321 723 4286270467
23.937614 1572.9321 723 4285942560
24.983486 1572.8293 722 4285942560
26.069725 1572.8293 722 4285942545
27.155964 1572.8293 722 4285942545
28.242203 1572.8293 722 4285942547
29.32844 1572.8293 722 4286008340
30.414679 1572.8293 722 4286008340
31.500917 1572.8293 722 4286271512
32.587154 1572.8293 722 4286074898
33.673393 1572.8293 722 4286140692
34.700916 1572.7266 721 4285813276
35.845871 1572.8293 722 4285944605
36.93211 1572.8293 722 4286010904
39.880733 1575.8092 751 4286076697
40.954128 1575.7064 750 4285945377
42.023853 1575.6036 749 4285945377
43.159634 1575.6036 749 4285945627
44.223854 1575.501 748 4285945627
45.3578 1575.501 748 4285945377
46.491745 1575.501 748 4286340135
47.471561 1575.2954 746 4285158183
48.601833 1575.2954 746 4282526720
49.732109 1575.2954 746 4282196260
50.862385 1575.2954 746 4284104257
51.908257 1575.1926 745 4284698949
53.036697 1575.1926 745 4285027658
54.165138 1575.1926 745 4285027378
55.293579 1575.1926 745 4284106276
56.51376 1575.2954 746 4284761632
57.550457 1575.1926 745 4285485099
58.774311 1575.2954 746 4286862395
59.904587 1575.2954 746 4286796602
61.034863 1575.2954 746 4286532408
62.06422 1575.1926 745 4286532408
63.192661 1575.1926 745 4286666579
64.321098 1575.1926 745 4288245354
65.449539 1575.1926 745 4287526011
66.686241 1575.2954 746 4291802556
67.816513 1575.2954 746 4292331212
68.834862 1575.1926 745 4294831346
70.077065 1575.2954 746 4294438639
71.207336 1575.2954 746 4293978088
72.689911 1575.6036 749 4294043111
74.064217 1575.8092 751 4294108904
75.324768 1575.9119 752 4293977318
76.711929 1576.1174 754 4294108904
77.85688 1576.1174 754 4294109417
79.001831 1576.1174 754 4293912295
80.27523 1576.2202 755 4293977320
81.812843 1576.5284 758 4293845734
83.361465 1576.8367 761 4293845737
84.519264 1576.8367 761 4293845737
86.220184 1577.2477 765 4293845734
87.385323 1577.2477 765 4293845734
88.550461 1577.2477 765 4293977320
89.715599 1577.2477 765 4293845734
20.708258 1571.9449 724 4286138123
21.761467 1571.844 723 4285942016
22.849541 1571.844 723 4286204928
23.937614 1571.844 723 4285876515
24.983486 1571.7432 722 4285876515
26.069725 1571.7432 722 4285745436
27.155964 1571.7432 722 4285942558
28.242203 1571.7432 722 4285942560
29.32844 1571.7432 722 4285942560
30.363302 1571.6422 721 4285942560
31.500917 1571.7432 722 4286008353
32.532108 1571.6422 721 4285616131
33.673393 1571.7432 722 4285879302
34.700916 1571.6422 721 4285944596
35.845871 1571.7432 722 4285878802
38.741283 1574.6697 751 4286010650
39.880733 1574.6697 751 4286010650
40.954128 1574.5688 750 4285879593
42.091743 1574.5688 750 4285879593
43.229359 1574.5688 750 4285879834
44.295414 1574.4679 749 4285879834
45.431194 1574.4679 749 4285945377
46.491745 1574.3669 748 4286274342
47.625687 1574.3669 748 4284764964
48.759632 1574.3669 748 4282001664
49.893578 1574.3669 748 4280557345
50.862385 1574.1652 746 4281675826
51.992661 1574.1652 746 4282920503
53.122936 1574.1652 746 4283381054
54.165138 1574.0642 745 4284828981
55.383488 1574.1652 746 4286539856
56.51376 1574.1652 746 4286801197
57.644035 1574.1652 746 4287195955
58.774311 1574.1652 746 4287522108
59.904587 1574.1652 746 4287587901
61.233028 1574.3669 748 4287323978
62.165138 1574.1652 746 4286731840
63.295414 1574.1652 746 4286602067
64.42569 1574.1652 746 4288115049
65.555962 1574.1652 746 4287329401
66.686241 1574.1652 746 4292329413
68.036697 1574.3669 748 4292923866
69.170639 1574.3669 748 4294831863
70.532112 1574.5688 750 4294438639
71.785324 1574.6697 751 4294241259
72.924774 1574.6697 751 4294239722
74.064217 1574.6697 751 4294042600
75.324768 1574.7706 752 4294042598
76.834862 1575.0734 755 4294239720
77.981651 1575.0734 755 4294109158
79.128441 1575.0734 755 4294043365
80.532112 1575.2753 757 4293977318
82.203667 1575.679 761 4293845988
83.757797 1575.9817 764 4293845734
84.921104 1575.9817 764 4293845734
86.220184 1576.0825 765 4293647842
87.385323 1576.0825 765 4293516256
88.689911 1576.1835 766 4293582562
89.85688 1576.1835 766 4293845734
20.74312 1570.9541 725 4286007057
21.798164 1570.8551 724 4286072832
22.849541 1570.756 723 4286204672
23.937614 1570.756 723 4285876765
24.983486 1570.6569 722 4285745436
26.069725 1570.6569 722 4285942545
27.110092 1570.5577 721 4285942545
28.194496 1570.5577 721 4286008340
29.278898 1570.5577 721 4286139669
30.363302 1570.5577 721 4286139940
31.447706 1570.5577 721 4286008353
32.532108 1570.5577 721 4284958720
33.616512 1570.5577 721 4285616898
34.700916 1570.5577 721 4285682201
35.906422 1570.756 723 4285813787
38.741283 1573.5303 751 4286337818
39.880733 1573.5303 751 4286337818
41.020184 1573.5303 751 4285748244
42.159634 1573.5303 751 4285880086
43.299084 1573.5303 751 4285683486
44.438534 1573.5303 751 4285617693
45.504585 1573.4312 750 4285683486
46.6422 1573.4312 750 4286078244
47.702751 1573.3322 749 4284568103
48.838531 1573.3322 749 4281607168
49.974312 1573.3322 749 4279440899
51.027523 1573.233 748 4280230671
51.992661 1573.0349 746 4281147648
53.122936 1573.0349 746 4282924057
54.253212 1573.0349 746 4285352736
55.383488 1573.0349 746 4287129147
56.697247 1573.233 748 4287194677
57.831192 1573.233 748 4287128884
58.965137 1573.233 748 4287455550
60.099083 1573.233 748 4287916101
61.233028 1573.233 748 4287586895
62.366974 1573.233 748 4286863429
63.500916 1573.233 748 4287192401
64.84404 1573.4312 750 4288376931
65.981651 1573.4312 750 4287001713
67.011009 1573.3322 749 4292199360
68.14679 1573.3322 749 4293319390
69.394493 1573.4312 750 4294437871
70.645874 1573.5303 751 4294173414
71.900917 1573.6294 752 4294436842
73.042198 1573.6294 752 4294436840
74.183487 1573.6294 752 4294436840
75.445869 1573.7284 753 4294107109
77.080734 1574.1248 757 4294041316
77.981651 1573.9266 755 4293910498
79.381653 1574.1248 757 4294107620
80.788994 1574.323 759 4293975267
82.333946 1574.6202 762 4293975267
83.493576 1574.6202 762 4293844451
84.653214 1574.6202 762 4293778658
86.220184 1574.9175 765 4293582049
87.385323 1574.9175 765 4293582049
88.550461 1574.9175 765 4293449693
89.715599 1574.9175 765 4293778658
20.74312 1569.8624 725 4286007057
21.761467 1569.6678 723 4286008072
22.849541 1569.6678 723 4286139658
23.937614 1569.6678 723 4286073361
24.983486 1569.5707 722 4286073361
26.025688 1569.4734 721 4285810957
27.110092 1569.4734 721 4285942799
28.194496 1569.4734 721 4285942547
29.278898 1569.4734 721 4286271512
30.311926 1569.3761 720 4286139690
31.394495 1569.3761 720 4286073897
32.477066 1569.3761 720 4285942545
33.616512 1569.4734 721 4286008338
34.700916 1569.4734 721 4285747481
35.78532 1569.4734 721 4285747481
38.741283 1572.3909 751 4286010904
39.880733 1572.3909 751 4285944855
41.020184 1572.3909 751 4285682689
42.159634 1572.3909 751 4286011654
43.299084 1572.3909 751 4285879834
44.438534 1572.3909 751 4285879834
45.57798 1572.3909 751 4285945377
46.6422 1572.2936 750 4286076706
47.933945 1572.488 752 4285158187
48.99633 1572.3909 751 4282921225
50.13578 1572.3909 751 4283448627
51.192661 1572.2936 750 4284435522
52.245872 1572.1963 749 4285355820
53.295414 1572.0991 748 4286605631
54.517429 1572.1963 749 4286340646
55.65321 1572.1963 749 4286011682
56.880733 1572.2936 750 4286733353
58.018349 1572.2936 750 4286865196
59.155964 1572.2936 750 4287257664
60.390827 1572.3909 751 4288047437
61.530273 1572.3909 751 4287653957
62.669724 1572.3909 751 4286732855
63.809174 1572.3909 751 4286732622
64.948624 1572.3909 751 4288311397
66.088074 1572.3909 751 4287658864
67.227524 1572.3909 751 4292856511
68.366974 1572.3909 751 4293780445
69.506424 1572.3909 751 4294438119
70.759636 1572.488 752 4294174951
72.01651 1572.5853 753 4294437867
73.15963 1572.5853 753 4294305767
74.30275 1572.5853 753 4294371560
75.566971 1572.6826 754 4294042600
77.080734 1572.9744 757 4293976806
78.231194 1572.9744 757 4293976806
79.508255 1573.0715 758 4294108393
80.917435 1573.2661 760 4293909474
82.594498 1573.655 764 4293909474
83.889908 1573.7523 765 4293647842
85.055046 1573.7523 765 4293516256
86.355965 1573.8495 766 4293450460
87.522934 1573.8495 766 4293516253
88.689911 1573.8495 766 4293450210
19.618349 1568.6752 724 4286269972
20.673395 1568.5798 723 4285809421
21.761467 1568.5798 723 4286007309
22.849541 1568.5798 723 4286336017
23.897247 1568.4844 722 4286139169
24.983486 1568.4844 722 4285942047
26.025688 1568.389 721 4285810957
27.110092 1568.389 721 4285942799
28.194496 1568.389 721 4286008340
29.278898 1568.389 721 4286271512
30.311926 1568.2936 720 4286270758
31.394495 1568.2936 720 4286336551
32.477066 1568.2936 720 4286074649
33.559631 1568.2936 720 4286074649
34.6422 1568.2936 720 4285813007
35.78532 1568.389 721 4285878800
38.803669 1571.3468 752 4285813274
39.944954 1571.3468 752 4285681687
41.086239 1571.3468 752 4285550088
42.431194 1571.6331 755 4286076432
43.368809 1571.3468 752 4286010650
44.51009 1571.3468 752 4286076443
45.651375 1571.3468 752 4286076193
46.71743 1571.2513 751 4286141986
48.088074 1571.5376 754 4285552179
49.154129 1571.4423 753 4284631077
50.216515 1571.3468 752 4285156138
51.27523 1571.2513 751 4285945398
52.41468 1571.2513 751 4286142522
53.467892 1571.156 750 4286800195
54.693577 1571.2513 751 4286471481
55.833027 1571.2513 751 4286142772
57.06422 1571.3468 752 4286666538
58.111927 1571.2513 751 4286929453
59.251377 1571.2513 751 4286733103
60.390827 1571.2513 751 4287654205
61.530273 1571.2513 751 4287588685
62.669724 1571.2513 751 4286535740
63.809174 1571.2513 751 4286665545
64.948624 1571.2513 751 4288836458
66.088074 1571.2513 751 4288906632
67.335777 1571.3468 752 4293577935
68.477066 1571.3468 752 4293977318
69.618347 1571.3468 752 4294240746
70.98716 1571.5376 754 4293845988
72.132111 1571.5376 754 4293845988
73.394493 1571.6331 755 4293582562
74.541283 1571.6331 755 4293648355
75.930275 1571.8239 757 4293977320
77.326607 1572.0146 759 4293779941
78.480736 1572.0146 759 4293844968
80.014679 1572.3009 762 4293976555
81.43119 1572.4917 764 4293450208
82.72477 1572.5872 765 4293581795
84.022018 1572.6826 766 4293647844
85.188988 1572.6826 766 4293516002
86.355965 1572.6826 766 4293187291
87.522934 1572.6826 766 4293450206
88.689911 1572.6826 766 4293385184
19.618349 1567.5853 724 4286139919
20.673395 1567.4917 723 4285679368
21.761467 1567.4917 723 4285679641
22.849541 1567.4917 723 4286074399
23.897247 1567.3982 722 4285942308
24.983486 1567.3982 722 4285679137
26.025688 1567.3046 721 4285418009
27.110092 1567.3046 721 4285615644
28.194496 1567.3046 721 4285615633
29.278898 1567.3046 721 4285812755
30.311926 1567.2111 720 4286074147
31.394495 1567.2111 720 4286074147
32.42202 1567.1174 719 4286074395
33.559631 1567.2111 720 4286074395
34.6422 1567.2111 720 4285878800
35.72477 1567.2111 720 4285944594
39.115597 1570.6733 757 4286074395
40.266056 1570.6733 757 4286008601
41.416515 1570.6733 757 4286008853
42.431194 1570.4862 755 4286140440
43.57798 1570.4862 755 4286205983
44.72477 1570.4862 755 4286469154
45.871559 1570.4862 755 4286141986
47.018349 1570.4862 755 4286207780
48.165138 1570.4862 755 4285946170
49.233028 1570.3927 754 4285682741
50.377983 1570.3927 754 4286076975
51.440369 1570.2991 753 4286405939
52.499084 1570.2056 752 4286666810
53.640366 1570.2056 752 4286864190
54.781651 1570.2056 752 4286402859
56.012844 1570.2991 753 4286008101
57.155964 1570.2991 753 4286270004
58.205505 1570.2056 752 4287059520
59.34679 1570.2056 752 4287259700
60.488075 1570.2056 752 4287852093
61.629356 1570.2056 752 4287588935
62.770641 1570.2056 752 4286273075
63.911926 1570.2056 752 4286732370
65.053207 1570.2056 752 4289429883
66.194496 1570.2056 752 4289039000
67.335777 1570.2056 752 4293710303
68.587158 1570.2991 753 4293977318
69.954132 1570.4862 755 4294503662
71.100914 1570.4862 755 4293977316
72.247704 1570.4862 755 4293845986
73.629356 1570.6733 757 4293714148
74.779816 1570.6733 757 4293714148
76.051376 1570.767 758 4293648357
77.449539 1570.9541 760 4293582308
78.730278 1571.0477 761 4293779689
80.267891 1571.3285 764 4294042861
81.559631 1571.422 765 4293581797
82.855049 1571.5156 766 4293844968
84.022018 1571.5156 766 4293910759
85.188988 1571.5156 766 4294108395
86.491745 1571.6091 767 4293648353
87.660553 1571.6091 767 4293516767
89.387154 1571.9835 771 4293582308
18.590826 1566.679 726 4285813276
19.618349 1566.4954 724 4285878800
20.673395 1566.4037 723 4285747214
21.761467 1566.4037 723 4285351956
22.811008 1566.3119 722 4285746458
23.897247 1566.3119 722 4285681699
24.941284 1566.2202 721 4285484576
26.025688 1566.2202 721 4285419281
27.110092 1566.2202 721 4285485330
28.194496 1566.2202 721 4285746964
29.278898 1566.2202 721 4285878550
30.311926 1566.1284 720 4285812522
31.394495 1566.1284 720 4285746729
32.42202 1566.0367 719 4285944357
33.559631 1566.1284 720 4285812772
34.6422 1566.1284 720 4285944596
38.025688 1569.6146 758 4285944596
39.177982 1569.6146 758 4286206487
40.266056 1569.5229 757 4286074900
41.416515 1569.5229 757 4286270994
42.566971 1569.5229 757 4286468373
43.71743 1569.5229 757 4286468893
44.867889 1569.5229 757 4286600222
45.871559 1569.3395 755 4286141986
47.018349 1569.3395 755 4286141986
48.165138 1569.3395 755 4286141748
49.311928 1569.3395 755 4286141748
50.377983 1569.2477 754 4286667564
51.440369 1569.156 753 4286799151
52.583485 1569.156 753 4286665784
53.726604 1569.156 753 4286402355
54.869724 1569.156 753 4286269993
56.102753 1569.2477 754 4286335786
57.247707 1569.2477 754 4286007066
58.299084 1569.156 753 4286928168
59.442204 1569.156 753 4287260733
60.58532 1569.156 753 4287655491
61.728439 1569.156 753 4287588433
62.871559 1569.156 753 4286996039
63.911926 1569.0642 752 4287127639
65.053207 1569.0642 752 4289430394
66.300919 1569.156 753 4289367963
67.444038 1569.156 753 4294171108
68.69725 1569.2477 754 4293977320
69.954132 1569.3395 755 4294306285
71.328438 1569.5229 757 4293846502
72.478897 1569.5229 757 4293846502
73.629356 1569.5229 757 4293648355
74.899086 1569.6146 758 4293582562
76.172478 1569.7064 759 4293582308
77.449539 1569.7982 760 4293516515
79.104584 1570.1652 764 4293648616
80.394493 1570.2568 765 4293714409
81.688072 1570.3486 766 4293384415
82.855049 1570.3486 766 4293581795
84.154129 1570.4404 767 4293647072
85.322937 1570.4404 767 4294107622
86.491745 1570.4404 767 4293911011
88.073395 1570.7156 770 4293647840
89.387154 1570.8074 771 4293582562
90.563301 1570.8074 771 4293648355
18.590826 1565.5853 726 4286535451
19.651377 1565.4954 725 4285879050
20.708258 1565.4055 724 4285879050
21.761467 1565.3156 723 4285613848
22.849541 1565.3156 723 4285745434
23.897247 1565.2257 722 4286008340
24.983486 1565.2257 722 4286139669
26.069725 1565.2257 722 4285746962
27.110092 1565.1357 721 4285746962
28.194496 1565.1357 721 4285485076
29.278898 1565.1357 721 4285682198
30.363302 1565.1357 721 4285812526
31.394495 1565.0459 720 4285746477
32.477066 1565.0459 720 4285681185
33.559631 1565.0459 720 4285812772
34.700916 1565.1357 721 4285747481
38.086239 1568.5522 759 4285813274
39.177982 1568.4624 758 4286140444
40.330276 1568.4624 758 4286206237
41.416515 1568.3724 757 4286337055
42.566971 1568.3724 757 4286599970
43.71743 1568.3724 757 4286468641
44.867889 1568.3724 757 4286468641
45.871559 1568.1926 755 4286337568
47.018349 1568.1926 755 4286337568
48.165138 1568.1926 755 4286206248
49.233028 1568.1028 754 4286140455
50.377983 1568.1028 754 4286468641
51.440369 1568.0128 753 4286731557
52.583485 1568.0128 753 4286598944
53.726604 1568.0128 753 4285348620
54.957798 1568.1028 754 4286005803
56.102753 1568.1028 754 4286992698
57.247707 1568.1028 754 4286006816
58.392662 1568.1028 754 4286796589
59.537613 1568.1028 754 4287391036
60.682568 1568.1028 754 4288048965
61.827522 1568.1028 754 4287588179
62.871559 1568.0128 753 4286996041
64.014679 1568.0128 753 4286997588
65.157799 1568.0128 753 4289366136
66.407341 1568.1028 754 4289631902
67.660553 1568.1926 755 4294368998
69.027519 1568.3724 757 4294766316
70.289909 1568.4624 758 4294569194
71.4422 1568.4624 758 4293977318
72.594498 1568.4624 758 4293977318
73.86422 1568.5522 759 4293714148
75.018349 1568.5522 759 4293648355
76.293579 1568.6422 760 4293451746
77.572479 1568.7321 761 4293451746
79.104584 1569.0018 764 4293517539
80.521103 1569.1816 766 4293846248
81.816513 1569.2716 767 4293582562
82.985321 1569.2716 767 4293845734
84.28624 1569.3615 768 4293647842
85.456879 1569.3615 768 4293844964
86.899086 1569.5413 770 4293648353
88.211006 1569.6312 771 4293319644
89.387154 1569.6312 771 4293385437
90.563301 1569.6312 771 4293648353
18.590826 1564.4917 726 4285877013
19.651377 1564.4037 725 4285747212
20.708258 1564.3156 724 4285747212
21.761467 1564.2275 723 4285941763
22.849541 1564.2275 723 4286139399
23.897247 1564.1394 722 4286073361
24.983486 1564.1394 722 4286073361
26.069725 1564.1394 722 4285615633
27.155964 1564.1394 722 4285615633
28.194496 1564.0514 721 4285681185
29.278898 1564.0514 721 4285681185
30.363302 1564.0514 721 4285680933
31.394495 1563.9633 720 4285812776
32.477066 1563.9633 720 4285747481
33.616512 1564.0514 721 4285813274
36.990826 1567.4862 760 4285944605
38.14679 1567.4862 760 4285813276
39.302753 1567.4862 760 4286206237
40.394497 1567.3982 759 4286337566
41.482571 1567.3101 758 4286402848
42.634861 1567.3101 758 4286599970
43.787155 1567.3101 758 4286600222
44.867889 1567.222 757 4286600222
46.018349 1567.222 757 4286468641
47.168808 1567.222 757 4286402848
48.165138 1567.0459 755 4286533160
49.311928 1567.0459 755 4285217556
50.458717 1567.0459 755 4286001937
51.522934 1566.9578 754 4286199573
52.667889 1566.9578 754 4286332967
53.812843 1566.9578 754 4285938209
54.957798 1566.9578 754 4286201899
56.192661 1567.0459 755 4286859828
57.339451 1567.0459 755 4286006816
58.48624 1567.0459 755 4287454262
59.537613 1566.9578 754 4287260233
60.682568 1566.9578 754 4287326026
61.827522 1566.9578 754 4286995780
62.972477 1566.9578 754 4287324489
64.117432 1566.9578 754 4287261028
65.366974 1567.0459 755 4289234818
66.726608 1567.222 757 4289896103
67.985321 1567.3101 758 4294435820
69.247704 1567.3982 759 4294767090
70.401833 1567.3982 759 4294240746
71.555962 1567.3982 759 4293845988
72.710091 1567.3982 759 4293977318
73.86422 1567.3982 759 4293977318
75.137611 1567.4862 760 4293714146
76.41468 1567.5743 761 4293517539
77.941284 1567.8385 764 4293517539
79.229355 1567.9266 765 4293517539
80.647705 1568.1028 767 4293517539
81.816513 1568.1028 767 4293319392
83.115593 1568.1908 768 4293648357
84.550461 1568.3669 770 4293582562
85.72477 1568.3669 770 4293648355
87.034859 1568.4551 771 4293517537
88.486237 1568.6312 773 4293320157
89.666054 1568.6312 773 4292793046
90.845871 1568.6312 773 4293385184
18.559633 1563.3119 725 4286073363
19.651377 1563.3119 725 4285942795
20.708258 1563.2257 724 4285811209
21.761467 1563.1394 723 4285875968
22.849541 1563.1394 723 4286204672
23.897247 1563.0532 722 4286007822
24.983486 1563.0532 722 4285942029
26.025688 1562.9669 721 4285549838
27.155964 1563.0532 722 4285615631
28.194496 1562.9669 721 4285549345
29.278898 1562.9669 721 4285615394
30.363302 1562.9669 721 4285615140
31.394495 1562.8807 720 4285812776
32.477066 1562.8807 720 4285747481
33.559631 1562.8807 720 4286010652
37.049541 1566.4165 761 4285813274
38.14679 1566.3303 760 4285747481
39.302753 1566.3303 760 4286206237
40.458717 1566.3303 760 4286206237
41.548622 1566.244 759 4286533914
42.702751 1566.244 759 4286599707
43.85688 1566.244 759 4286599709
45.011009 1566.244 759 4286665502
46.091743 1566.1578 758 4286665504
47.244038 1566.1578 758 4286336540
48.319267 1566.0715 757 4285939744
49.469727 1566.0715 757 4283900161
50.620182 1566.0715 757 4284882720
51.605503 1565.899 755 4285935409
52.752293 1565.899 755 4285673254
53.899082 1565.899 755 4285475875
55.045872 1565.899 755 4286002732
56.192661 1565.899 755 4287253056
57.339451 1565.899 755 4286138416
58.673393 1566.0715 757 4287520068
59.633026 1565.899 755 4287523153
60.779816 1565.899 755 4287720532
61.926605 1565.899 755 4287787342
63.27523 1566.0715 757 4288642651
64.42569 1566.0715 757 4287591806
65.680733 1566.1578 758 4289039252
66.939453 1566.244 759 4290552752
68.093575 1566.244 759 4294961140
69.357796 1566.3303 760 4294700525
70.513763 1566.3303 760 4293976802
71.669724 1566.3303 760 4293977320
72.825691 1566.3303 760 4294174699
73.981651 1566.3303 760 4293714148
75.256882 1566.4165 761 4293648355
76.535782 1566.5028 762 4293714659
78.064217 1566.7615 765 4293780708
79.354126 1566.8477 766 4293254881
80.647705 1566.934 767 4293254881
81.944954 1567.0201 768 4293385188
83.376144 1567.1926 770 4293582310
84.682571 1567.2789 771 4293647844
85.992661 1567.3651 772 4293647844
87.306419 1567.4514 773 4293647842
88.899086 1567.7101 776 4293647842
90.363304 1567.8826 778 4293516769
91.693581 1567.9688 779 4293582562
92.884407 1567.9688 779 4293779425
17.497248 1562.3046 726 4286335767
18.590826 1562.3046 726 4286138645
19.651377 1562.2202 725 4286073361
20.708258 1562.1357 724 4286007568
21.761467 1562.0514 723 4285941763
22.849541 1562.0514 723 4286007557
23.937614 1562.0514 723 4286007068
24.983486 1561.9669 722 4285941275
26.025688 1561.8826 721 4285942545
27.155964 1561.9669 722 4285942545
28.194496 1561.8826 721 4285615140
29.278898 1561.8826 721 4285615140
30.363302 1561.8826 721 4285681185
31.394495 1561.7982 720 4285746979
32.477066 1561.7982 720 4285616407
33.559631 1561.7982 720 4285682201
37.049541 1565.2587 761 4285155332
38.20734 1565.2587 761 4285944848
39.365139 1565.2587 761 4286206237
40.458717 1565.1743 760 4286337566
41.614677 1565.1743 760 4286796068
42.702751 1565.09 759 4286861862
43.85688 1565.09 759 4286599194
45.011009 1565.09 759 4286862365
46.165138 1565.09 759 4287125803
47.244038 1565.0055 758 4286270495
48.396332 1565.0055 758 4286070049
49.548622 1565.0055 758 4284491017
50.700916 1565.0055 758 4285079820
51.770641 1564.9211 757 4285408785
52.921101 1564.9211 757 4285803813
54.07156 1564.9211 757 4285737764
55.222019 1564.9211 757 4286002984
56.372478 1564.9211 757 4286660914
57.522934 1564.9211 757 4285940521
58.673393 1564.9211 757 4287848518
59.823853 1564.9211 757 4287129676
60.974312 1564.9211 757 4287656020
62.223854 1565.0055 758 4287263061
63.376148 1565.0055 758 4287263061
64.631195 1565.09 759 4287196796
65.889908 1565.1743 760 4289170329
67.045868 1565.1743 760 4290881717
68.201836 1565.1743 760 4294960883
69.467888 1565.2587 761 4294766836
70.625687 1565.2587 761 4294174699
71.783485 1565.2587 761 4294174699
73.056877 1565.3431 762 4294043113
74.099083 1565.2587 761 4293318620
75.376144 1565.3431 762 4293910757
76.899086 1565.5963 765 4293977320
78.187157 1565.6808 766 4293582562
79.478897 1565.7651 767 4293189088
80.774315 1565.8495 768 4293254881
82.201836 1566.0183 770 4293385188
83.506424 1566.1028 771 4293582310
84.814682 1566.1871 772 4293647844
86.126602 1566.2716 773 4293647844
87.4422 1566.356 774 4293516767
89.036697 1566.6091 777 4293582560
90.502754 1566.778 779 4293385186
91.834862 1566.8624 780 4293582308
93.027519 1566.8624 780 4293648355
16.403669 1561.2111 726 4286074395
17.497248 1561.2111 726 4286008855
18.590826 1561.2111 726 4285745684
19.684404 1561.2111 726 4285809944
20.74312 1561.1284 725 4285809944
21.798164 1561.0459 724 4286007309
22.849541 1560.9633 723 4286730775
23.937614 1560.9633 723 4286072609
24.983486 1560.8807 722 4286006816
26.069725 1560.8807 722 4285615633
27.155964 1560.8807 722 4285746962
28.242203 1560.8807 722 4285680933
29.278898 1560.7982 721 4285549347
30.363302 1560.7982 721 4285352988
31.447706 1560.7982 721 4285945125
32.532108 1560.7982 721 4285616405
38.267891 1564.1835 762 4286010137
39.427525 1564.1835 762 4286337053
40.522934 1564.101 761 4286402846
41.614677 1564.0183 760 4286533162
42.770641 1564.0183 760 4286598955
43.926605 1564.0183 760 4286533664
45.011009 1563.9358 759 4286533664
46.165138 1563.9358 759 4286928159
47.319267 1563.9358 759 4285941264
48.473396 1563.9358 759 4285871905
49.627522 1563.9358 759 4285213718
50.781651 1563.9358 759 4285079820
51.85321 1563.8533 758 4285540371
53.005505 1563.8533 758 4285410600
54.157799 1563.8533 758 4286134322
55.310093 1563.8533 758 4286070574
56.552292 1563.9358 759 4287255104
57.706421 1563.9358 759 4286600252
58.86055 1563.9358 759 4287652940
60.014679 1563.9358 759 4287589448
61.168808 1563.9358 759 4287852620
62.322937 1563.9358 759 4287393616
63.477066 1563.9358 759 4287393616
64.733948 1564.0183 760 4287721857
65.994499 1564.101 761 4289958818
67.15229 1564.101 761 4290683309
68.310089 1564.101 761 4294630633
69.57798 1564.1835 762 4294898418
70.961472 1564.3486 764 4294569709
71.897247 1564.1835 762 4294175212
73.288071 1564.3486 764 4293846248
74.56881 1564.4312 765 4293648103
75.733948 1564.4312 765 4294174447
77.02018 1564.5138 766 4293977320
78.433029 1564.679 768 4293319390
79.85321 1564.844 770 4293516517
81.027519 1564.844 770 4293977068
82.330276 1564.9266 771 4293780454
83.636696 1565.0092 772 4293978090
84.946793 1565.0918 773 4293582310
86.260551 1565.1743 774 4293582310
87.71376 1565.3395 776 4293516765
89.174309 1565.5046 778 4294043365
90.642204 1565.6697 780 4293516517
91.834862 1565.6697 780 4293319138
93.027519 1565.6697 780 4293385188
16.403669 1560.1174 726 4285747742
17.497248 1560.1174 726 4285746964
18.590826 1560.1174 726 4285549586
19.684404 1560.1174 726 4285678080
20.74312 1560.0367 725 4286072832
21.834862 1560.0367 725 4286072579
22.888073 1559.9559 724 4286138373
23.977982 1559.9559 724 4285546767
25.025688 1559.8752 723 4285941525
26.069725 1559.7944 722 4285484045
27.155964 1559.7944 722 4285484045
28.242203 1559.7944 722 4285352988
29.32844 1559.7944 722 4285418781
30.363302 1559.7137 721 4285287193
31.447706 1559.7137 721 4285484828
32.532108 1559.7137 721 4285485330
36.460552 1563.7505 771 4285682452
37.636696 1563.7505 771 4285879050
38.449543 1563.2661 765 4286010893
39.614677 1563.2661 765 4286271510
40.587154 1563.0238 762 4286271510
41.680733 1562.9431 761 4286007568
42.906422 1563.0238 762 4286599961
44.066055 1563.0238 762 4286468641
45.154129 1562.9431 761 4286797606
46.385323 1563.0238 762 4286798383
47.469727 1562.9431 761 4285548316
48.627522 1562.9431 761 4285740066
49.78532 1562.9431 761 4285147673
50.943119 1562.9431 761 4285276431
52.018349 1562.8624 760 4285671189
53.089909 1562.7816 759 4285016605
54.330276 1562.8624 760 4285608998
55.48624 1562.8624 760 4285940771
56.6422 1562.8624 760 4287125301
57.798164 1562.8624 760 4286797363
58.954128 1562.8624 760 4287850051
60.110092 1562.8624 760 4287721034
61.266056 1562.8624 760 4288049999
62.521099 1562.9431 761 4287786587
63.678898 1562.9431 761 4287655000
64.8367 1562.9431 761 4287919233
66.099083 1563.0238 762 4290090659
67.258713 1563.0238 762 4289501320
68.41835 1563.0238 762 4291211681
69.798164 1563.1853 764 4292464067
70.961472 1563.1853 764 4294306271
72.124771 1563.1853 764 4294241007
73.403671 1563.2661 765 4293846250
74.686241 1563.3468 766 4293582560
75.85321 1563.3468 766 4293977318
77.262383 1563.5083 768 4294173414
78.678902 1563.6697 770 4294107620
79.977982 1563.7505 771 4293909474
81.280731 1563.8312 772 4294238696
82.458717 1563.8312 772 4293846248
83.897247 1563.9927 774 4293780454
85.078896 1563.9927 774 4293385184
86.528442 1564.1542 776 4293582562
87.849541 1564.2349 777 4293516767
89.311928 1564.3964 779 4293845988
90.921104 1564.6385 782 4293714148
92.117432 1564.6385 782 4293385184
16.403669 1559.0238 726 4286337818
17.497248 1559.0238 726 4285747212
18.590826 1559.0238 726 4285615883
19.684404 1559.0238 726 4286074112
20.777981 1559.0238 726 4286074112
21.834862 1558.9449 725 4285941515
22.888073 1558.8661 724 4286007309
23.977982 1558.8661 724 4285941515
25.06789 1558.8661 724 4285941515
26.113762 1558.7871 723 4285941763
27.201836 1558.7871 723 4286073350
28.242203 1558.7083 722 4285877256
29.32844 1558.7083 722 4285943049
30.363302 1558.6294 721 4285549838
31.447706 1558.6294 721 4285549838
32.532108 1558.6294 721 4285615633
36.460552 1562.5743 771 4285812755
37.636696 1562.5743 771 4286009344
38.812843 1562.5743 771 4286206466
39.801834 1562.3376 768 4286336790
40.908257 1562.2587 767 4286270996
42.14312 1562.3376 768 4286403098
43.177982 1562.1798 766 4286666013
44.344955 1562.1798 766 4286600222
45.511925 1562.1798 766 4286666015
46.605503 1562.101 765 4286666034
47.770641 1562.101 765 4285152795
48.858715 1562.022 764 4285607461
50.022018 1562.022 764 4285278752
51.185322 1562.022 764 4285475359
