# .PCD v0.7 - Point Cloud Data file format
VERSION 0.7
FIELDS x y z rgb
SIZE 4 4 4 4
TYPE F F F U
COUNT 1 1 1 1
WIDTH 1058
HEIGHT 1
VIEWPOINT 0 0 0 1 0 0 0
POINTS 1058
DATA ascii
0.0049704621 0.87419927 0.75978565 1333771732
0.0065570986 0.87276381 0.76116222 1333773271
0.0081331627 0.87276381 0.76114613 1333772758
0.0097092278 0.87276381 0.76112998 1333773784
0.011285291 0.87276381 0.76111388 1333771471
0.012861356 0.87276381 0.76109779 1333768124
0.01443742 0.87276381 0.76108152 1333753732
0.015977226 0.87419927 0.75967312 1333732682
0.017549621 0.87419927 0.75965697 1333725229
0.019122018 0.87419927 0.75964087 1333734696
0.020741679 0.87276381 0.76101708 1333739064
0.022317743 0.87276381 0.76100099 1333730860
0.023893809 0.87276381 0.76098484 1333723148
0.025469873 0.87276381 0.76096874 1333743201
0.027045937 0.87276381 0.76095265 1333777639
0.028622001 0.87276381 0.7609365 1333779431
0.030301994 0.87061048 0.76300842 1333779945
0.03188356 0.87061048 0.76299232 1333781993
0.033465128 0.87061048 0.76297605 1333766059
0.0350467 0.87061048 0.76295996 1333763977
0.036628265 0.87061048 0.76294374 1333778884
0.038297471 0.8691749 0.76431936 1333784028
0.039882708 0.8691749 0.76430309 1333788657
0.041467946 0.8691749 0.76428699 1333788401
0.043053184 0.8691749 0.76427072 1333787886
0.044638425 0.8691749 0.76425451 1333787116
0.04632964 0.86773938 0.76562989 1333788401
0.047918547 0.86773938 0.76561368 1333787630
0.049620777 0.86630386 0.76698899 1333787630
0.051213354 0.86630386 0.76697266 1333787116
0.05280593 0.86630386 0.76695645 1333787116
0.054647163 0.86343288 0.769723 1333787116
0.056247078 0.86343288 0.76970667 1333788658
0.057451993 0.86773938 0.76551622 1333787118
0.0590409 0.86773938 0.76550001 1333787375
0.060768817 0.86630386 0.76687503 1333788143
0.062361393 0.86630386 0.76685864 1333788660
0.063953973 0.86630386 0.76684242 1333787377
-0.02544925 0.86017013 0.77147073 1333762713
-0.023843827 0.86017013 0.77145433 1333763742
-0.022160651 0.86232722 0.76935208 1333762463
-0.020512568 0.86376524 0.76794505 1333764262
-0.01891632 0.86376524 0.76792872 1333763495
-0.017320074 0.86376524 0.76791245 1333764780
-0.015686668 0.86520332 0.7665056 1333764268
-0.014060603 0.86664134 0.76509887 1333764268
-0.012471693 0.86664134 0.76508266 1333764014
-0.010882786 0.86664134 0.76506639 1333766583
-0.0092713982 0.86807942 0.76365989 1333766071
-0.00768616 0.86807942 0.76364368 1333767870
-0.0061009214 0.86807942 0.76362747 1333768898
-0.0045042112 0.86951751 0.7622211 1333769927
-0.002922643 0.86951751 0.76220483 1333769674
-0.0013410738 0.86951751 0.76218873 1333771473
0.00024118971 0.8716746 0.76008743 1333772758
0.0018172543 0.8716746 0.76007128 1333773786
0.0033933185 0.8716746 0.76005518 1333774812
0.0049693831 0.8716746 0.76003909 1333770957
0.0065667694 0.86951751 0.76210779 1333764278
0.0081215119 0.8716746 0.76000684 1333757339
0.0096975751 0.8716746 0.75999075 1333736028
0.01127364 0.8716746 0.7599746 1333728060
0.012849705 0.8716746 0.75995851 1333723183
0.014425769 0.8716746 0.75994241 1333723176
0.016001835 0.8716746 0.75992626 1333729585
0.017577898 0.8716746 0.75991017 1333734469
0.019153964 0.8716746 0.75989401 1333735468
0.020730026 0.8716746 0.75987792 1333728787
0.022306092 0.8716746 0.75986183 1333723156
0.023882156 0.8716746 0.75984567 1333734997
0.025458222 0.8716746 0.75982958 1333749126
0.027034285 0.8716746 0.75981349 1333778166
0.028708732 0.86951751 0.76188135 1333784309
0.030290302 0.86951751 0.76186526 1333784309
0.031871866 0.86951751 0.76184899 1333780715
0.033453438 0.86951751 0.76183289 1333769150
0.035035007 0.86951751 0.76181662 1333766321
0.036700513 0.86807942 0.76318967 1333771460
0.038285751 0.86807942 0.76317346 1333781979
0.039870992 0.86807942 0.76315737 1333787376
0.041456226 0.86807942 0.7631411 1333788401
0.043041464 0.86807942 0.76312488 1333788144
0.044626705 0.86807942 0.76310867 1333787633
0.046317894 0.86664134 0.76448143 1333788660
0.047906805 0.86664134 0.76446521 1333788144
0.049609005 0.86520332 0.76583779 1333788144
0.051201578 0.86520332 0.76582152 1333788144
0.052794158 0.86520332 0.7658053 1333788144
0.054386735 0.86520332 0.76578891 1333787633
0.057450969 0.8486656 0.78174341 1333788664
0.059029154 0.86664134 0.76435143 1333787890
0.060618065 0.86664134 0.76433522 1333788659
0.062206969 0.86664134 0.76431894 1333788662
-0.023855696 0.85906065 0.77029383 1333764770
-0.022250274 0.85906065 0.77027744 1333763235
-0.020572564 0.86122155 0.76817918 1333764264
-0.018972645 0.86122155 0.76816285 1333763495
-0.017331874 0.8626622 0.76675856 1333765037
-0.01573563 0.8626622 0.76674229 1333765038
-0.014105865 0.86410272 0.76533812 1333765295
-0.01248344 0.86554331 0.76393408 1333765809
-0.010894533 0.86554331 0.76391786 1333767608
-0.009283117 0.86698395 0.76251405 1333766330
-0.0076978789 0.86698395 0.76249778 1333768129
-0.0061126403 0.86698395 0.76248157 1333768904
-0.004527403 0.86698395 0.76246536 1333769676
-0.0029343341 0.86842453 0.76106167 1333770960
-0.0013527654 0.86842453 0.76104552 1333770703
0.00022953868 0.87058544 0.75894827 1333770449
0.0018056033 0.87058544 0.75893211 1333768393
0.0033816677 0.87058544 0.75891602 1333766081
0.0049577323 0.87058544 0.75889993 1333764539
0.0065550786 0.86842453 0.76096457 1333754784
0.0081098611 0.87058544 0.75886756 1333750671
0.0096859252 0.87058544 0.75885147 1333732190
0.011299784 0.86842453 0.76091611 1333723166
0.012881353 0.86842453 0.7608999 1333725721
0.014414119 0.87058544 0.75880313 1333731889
0.015990185 0.87058544 0.75878698 1333737791
0.017566249 0.87058544 0.75877088 1333738562
0.019142313 0.87058544 0.75875479 1333731622
0.020789199 0.86842453 0.76081908 1333723656
0.022370765 0.86842453 0.76080287 1333723136
0.023952333 0.86842453 0.76078677 1333748853
0.025446571 0.87058544 0.7586903 1333757602
0.027115472 0.86842453 0.76075441 1333775849
0.02869704 0.86842453 0.76073813 1333780716
0.030347839 0.86698395 0.76210862 1333783030
0.03193308 0.86698395 0.76209253 1333779690
0.033518314 0.86698395 0.76207632 1333765555
0.035103552 0.86698395 0.76206005 1333766323
0.036688793 0.86698395 0.76204383 1333774546
0.038274031 0.86698395 0.76202756 1333782237
0.039859273 0.86698395 0.76201147 1333787891
0.041444506 0.86698395 0.76199526 1333788660
0.043029748 0.86698395 0.76197898 1333787889
0.044717241 0.86554331 0.76334912 1333788401
0.046306148 0.86554331 0.7633329 1333788143
0.047895059 0.86554331 0.76331663 1333788145
0.049483962 0.86554331 0.76330042 1333788402
0.051072873 0.86554331 0.76328421 1333787632
0.05266178 0.86554331 0.76326793 1333787375
0.057438884 0.84753591 0.78056175 1333788406
0.059205271 0.84609526 0.78193116 1333787889
-0.022262143 0.85795122 0.76911694 1333764512
-0.020584391 0.86011595 0.76702273 1333765025
-0.018984472 0.86011595 0.76700634 1333765290
-0.017343674 0.86155909 0.76560473 1333765547
-0.015747428 0.86155909 0.76558852 1333766573
-0.01411764 0.86300218 0.76418704 1333767088
-0.01252506 0.86300218 0.76417065 1333767602
-0.010932484 0.86300218 0.76415443 1333768630
-0.0093173701 0.86444533 0.76275319 1333766837
-0.007728463 0.86444533 0.7627368 1333765809
-0.0061243591 0.86588842 0.76133567 1333765043
-0.0045391214 0.86588842 0.76131946 1333763244
-0.002953883 0.86588842 0.76130337 1333755794
-0.0013644568 0.86733162 0.75990224 1333752709
0.00021711231 0.86733162 0.75988609 1333731404
0.0017986805 0.86733162 0.75986987 1333723950
0.0033802495 0.86733162 0.75985378 1333723149
0.004946081 0.86949635 0.75776064 1333723136
0.0065433863 0.86733162 0.75982141 1333723163
0.008124955 0.86733162 0.7598052 1333723173
0.0097065242 0.86733162 0.75978905 1333723942
0.011288092 0.86733162 0.75977284 1333725741
0.012869661 0.86733162 0.75975668 1333726248
0.01445123 0.86733162 0.75974047 1333727275
0.016032798 0.86733162 0.75972438 1333734698
0.017614368 0.86733162 0.75970811 1333734184
0.019130662 0.86949635 0.75761563 1333731105
0.020777507 0.86733162 0.7596758 1333726221
0.022359073 0.86733162 0.75965965 1333723175
0.023940643 0.86733162 0.75964344 1333759168
0.025522213 0.86733162 0.75962734 1333770954
0.02710378 0.86733162 0.75961107 1333776865
0.028750885 0.86588842 0.760979 1333780200
0.030336121 0.86588842 0.7609629 1333784312
0.031921361 0.86588842 0.76094663 1333780715
0.033506595 0.86588842 0.76093042 1333755015
0.035091836 0.86588842 0.76091421 1333753994
0.036677074 0.86588842 0.76089793 1333775325
0.038262315 0.86588842 0.76088172 1333786612
0.039847553 0.86588842 0.76086563 1333788154
0.041527681 0.86444533 0.76223314 1333788148
0.043116584 0.86444533 0.76221693 1333788148
0.044705495 0.86444533 0.76220071 1333788143
0.046294402 0.86444533 0.76218432 1333787629
0.047883313 0.86444533 0.76216811 1333787117
0.051061127 0.86444533 0.76213562 1333788659
0.055792022 0.8464061 0.77939683 1333787632
0.057426799 0.8464061 0.77938014 1333788660
0.059193164 0.84496301 0.78074682 1333788401
0.060696352 0.8464061 0.7793467 1333788401
0.062331129 0.8464061 0.77932996 1333788402
0.063965909 0.8464061 0.77931321 1333788663
-0.02227401 0.8568418 0.76795655 1333755777
-0.020596217 0.85901034 0.76586622 1333757319
-0.0189963 0.85901034 0.76584983 1333759884
-0.017396383 0.85901034 0.7658335 1333759114
-0.015759228 0.86045599 0.76443458 1333757832
-0.01416298 0.86045599 0.76441836 1333758604
-0.012536833 0.86190164 0.7630195 1333758353
-0.010944256 0.86190164 0.76300317 1333759381
-0.009329116 0.86334729 0.76160461 1333758620
-0.0077402084 0.86334729 0.76158839 1333757078
-0.0061513004 0.86334729 0.76157212 1333755026
-0.0045508402 0.86479294 0.76017356 1333751428
-0.0029656016 0.86479294 0.76015747 1333748078
-0.0013761484 0.86623865 0.75875902 1333739597
0.00020542073 0.86623865 0.75874293 1333739315
0.0017869889 0.86623865 0.75872666 1333726722
0.0033685579 0.86623865 0.75871056 1333723136
0.0049344301 0.86840719 0.75662136 1333727250
0.0065316954 0.86623865 0.7586782 1333735729
0.0081132641 0.86623865 0.75866199 1333730589
0.0096948314 0.86623865 0.75864589 1333733410
0.011301544 0.86479294 0.76001149 1333734951
0.01288678 0.86479294 0.75999534 1333733667
0.014439538 0.86623865 0.75859731 1333732897
0.016021108 0.86623865 0.75858116 1333733925
0.017602677 0.86623865 0.75856495 1333733925
0.019184245 0.86623865 0.75854886 1333729058
0.020765813 0.86623865 0.75853258 1333723146
0.022347383 0.86623865 0.75851649 1333735750
0.023928951 0.86623865 0.75850022 1333774558
0.025510522 0.86623865 0.75848413 1333778668
0.027153926 0.86479294 0.75984937 1333776869
0.028739166 0.86479294 0.75983316 1333781225
0.030324401 0.86479294 0.759817 1333783795
0.031909641 0.86479294 0.75980079 1333782762
0.033494879 0.86479294 0.75978452 1333759889
0.035160299 0.86334729 0.76114964 1333754494
0.03674921 0.86334729 0.76113343 1333776596
0.038338117 0.86334729 0.76111704 1333785332
0.039835833 0.86479294 0.75971973 1333786874
0.041515935 0.86334729 0.76108462 1333787380
0.043104839 0.86334729 0.76106834 1333787123
0.044693749 0.86334729 0.76105213 1333787118
0.046282656 0.86334729 0.76103586 1333787632
0.054145161 0.84527642 0.7782318 1333787632
0.055779938 0.84527642 0.77821511 1333788143
0.057414714 0.84527642 0.77819848 1333788659
0.059049491 0.84527642 0.77818179 1333788659
0.060684267 0.84527642 0.77816504 1333788401
0.062319044 0.84527642 0.77814829 1333787118
0.063953824 0.84527642 0.7781316 1333788663
-0.03902889 0.81663078 0.80421275 1333733661
-0.037649598 0.81083792 0.8097164 1333733913
-0.020680455 0.85573238 0.76677966 1333723136
-0.019008128 0.85790467 0.76469338 1333723136
-0.017408211 0.85790467 0.76467699 1333723136
-0.015808295 0.85790467 0.76466066 1333723136
-0.014174781 0.85935289 0.76326454 1333723136
-0.012578536 0.85935289 0.76324815 1333723136
-0.010956028 0.86080104 0.76185203 1333723136
-0.009363451 0.86080104 0.76183581 1333723136
-0.0077519543 0.86224926 0.76043981 1333723136
-0.0061630458 0.86224926 0.7604236 1333723150
-0.0045625591 0.86369753 0.75902772 1333723149
-0.0029773205 0.86369753 0.75901163 1333725978
-0.001392082 0.86369753 0.75899535 1333732403
0.00019372917 0.86514568 0.75759971 1333735991
0.0017752975 0.86514568 0.7575835 1333737276
0.0033568663 0.86514568 0.75756741 1333737802
0.0049384348 0.86514568 0.75755113 1333738315
0.0065341089 0.86369753 0.75891429 1333733167
0.0081193475 0.86369753 0.75889808 1333727513
0.0097045852 0.86369753 0.75888181 1333730074
0.011289824 0.86369753 0.75886559 1333731103
0.012875062 0.86369753 0.7588495 1333731099
0.0144603 0.86369753 0.75883323 1333730070
0.016045541 0.86369753 0.75881702 1333724677
0.01763078 0.86369753 0.7588008 1333726219
0.019216014 0.86369753 0.75878453 1333723136
0.020801254 0.86369753 0.75876844 1333756286
0.022386493 0.86369753 0.75875223 1333761696
0.023971729 0.86369753 0.75873595 1333783541
0.02549883 0.86514568 0.75734097 1333786624
0.027142208 0.86369753 0.75870347 1333782512
0.028727448 0.86369753 0.75868726 1333781741
0.030312683 0.86369753 0.75867116 1333782256
0.031897921 0.86369753 0.75865489 1333778143
0.03355965 0.86224926 0.76001734 1333760924
0.035148557 0.86224926 0.76000112 1333760661
0.036737464 0.86224926 0.75998485 1333776595
0.038326371 0.86224926 0.75996864 1333785329
0.039915282 0.86224926 0.75995237 1333787128
0.041504189 0.86224926 0.75993615 1333788151
0.043093093 0.86224926 0.75991982 1333787637
0.044682004 0.86224926 0.75990355 1333787377
0.055892039 0.84269851 0.77841175 1333787885
0.057402629 0.84414673 0.7770167 1333788400
0.059037406 0.84414673 0.77700001 1333788657
0.060672183 0.84414673 0.77698326 1333788657
0.062445827 0.84269851 0.77834475 1333787889
0.064084277 0.84269851 0.77832788 1333788665
-0.040657315 0.81690365 0.80162036 1333730843
-0.038956489 0.81690365 0.80160302 1333729815
-0.03725566 0.81690365 0.80158556 1333730323
-0.015820123 0.85679907 0.76350415 1333723136
-0.01418658 0.85824984 0.76211071 1333723136
-0.012590335 0.85824984 0.76209438 1333723136
-0.010967802 0.8597005 0.76070094 1333723136
-0.0093752239 0.8597005 0.76068455 1333730828
-0.0077637006 0.86115122 0.75929123 1333736740
-0.0061747921 0.86115122 0.75927502 1333739061
-0.0045742779 0.862602 0.75788194 1333733151
-0.0029890393 0.862602 0.75786573 1333729561
-0.0014038007 0.862602 0.75784951 1333732645
0.00018203759 0.86405271 0.75645643 1333738038
0.0017636059 0.86405271 0.75644028 1333741636
0.0033451747 0.86405271 0.75642407 1333741646
0.0049267435 0.86405271 0.75640798 1333736506
0.0065223905 0.862602 0.75776845 1333725469
0.0081076287 0.862602 0.75775218 1333725212
0.0096928673 0.862602 0.75773597 1333730839
0.011278106 0.862602 0.75771976 1333732124
0.012863344 0.862602 0.7577036 1333730073
0.014448581 0.862602 0.75768739 1333728788
0.016033821 0.862602 0.75767112 1333723153
0.01761906 0.862602 0.75765491 1333728294
0.019204296 0.862602 0.75763869 1333740866
0.020789536 0.862602 0.75762254 1333767080
0.022374775 0.862602 0.75760633 1333777615
0.023960011 0.862602 0.75759012 1333784553
0.025545251 0.862602 0.75757384 1333784057
0.02713049 0.862602 0.75755763 1333780974
0.028715728 0.862602 0.75754148 1333780204
0.030300964 0.862602 0.75752527 1333780717
0.031886205 0.862602 0.75750905 1333771467
0.033547904 0.86115122 0.75886875 1333760158
0.035136811 0.86115122 0.75885254 1333765017
0.036725719 0.86115122 0.75883633 1333782237
0.038314626 0.86115122 0.75882006 1333785841
0.039903536 0.86115122 0.75880384 1333786611
0.041492444 0.86115122 0.75878757 1333787127
0.043179829 0.8597005 0.76014709 1333786870
0.054241482 0.84156621 0.77724415 1333787886
0.055755768 0.84301698 0.77585179 1333787375
0.057390545 0.84301698 0.7758351 1333788402
0.059025321 0.84301698 0.77581835 1333788657
0.060660098 0.84301698 0.77580166 1333788657
0.06243372 0.84156621 0.77716041 1333787889
0.064072162 0.84156621 0.77714354 1333788664
-0.042463087 0.81427503 0.80178344 1333730325
-0.040669888 0.81572819 0.80039102 1333733400
-0.038841527 0.81790817 0.79831105 1333732886
-0.037146203 0.81790817 0.79829371 1333732889
-0.014232034 0.8556934 0.76233131 1333766055
-0.012602136 0.85714674 0.76094055 1333766572
-0.011005889 0.85714674 0.76092422 1333769143
-0.0093869958 0.8585999 0.75953346 1333769657
-0.0077754459 0.86005324 0.75814283 1333772997
-0.0061865379 0.86005324 0.75812662 1333768892
-0.0045859967 0.86150652 0.7567361 1333750131
-0.0030007579 0.86150652 0.75671983 1333723158
-0.001415519 0.86150652 0.75670362 1333723138
0.00017034601 0.8629598 0.75531322 1333723136
0.0017519143 0.8629598 0.75529712 1333723136
0.0033334834 0.8629598 0.75528091 1333723136
0.004925434 0.86150652 0.75663877 1333723136
0.0065106726 0.86150652 0.75662255 1333723136
0.008113632 0.86005324 0.75798035 1333723136
0.0097025391 0.86005324 0.75796413 1333723136
0.011291448 0.86005324 0.75794774 1333723136
0.012880355 0.86005324 0.75793153 1333723136
0.014469262 0.86005324 0.75791526 1333741370
0.016058171 0.86005324 0.75789905 1333752688
0.01764708 0.86005324 0.75788283 1333768624
0.019235987 0.86005324 0.75786656 1333778137
0.020824894 0.86005324 0.75785035 1333787132
0.022413803 0.86005324 0.75783408 1333784824
0.023948291 0.86150652 0.75644422 1333779684
0.025533531 0.86150652 0.756428 1333776866
0.02711877 0.86150652 0.75641173 1333777381
0.028769432 0.86005324 0.75776905 1333778915
0.030289246 0.86150652 0.75637937 1333777631
0.031874485 0.86150652 0.75636315 1333774287
0.033536155 0.86005324 0.75772035 1333767606
0.035205171 0.8585999 0.75907737 1333763245
0.036713973 0.86005324 0.75768787 1333777637
0.03830288 0.86005324 0.75767154 1333784817
0.039891791 0.86005324 0.75765526 1333783533
0.052707721 0.83898073 0.77744949 1333788400
0.054229375 0.84043396 0.77605981 1333788400
0.055867817 0.84043396 0.77604312 1333788406
0.057506267 0.84043396 0.77602625 1333788666
0.059144717 0.84043396 0.7760095 1333788664
0.060918301 0.83898073 0.77736562 1333788663
0.062560424 0.83898073 0.77734876 1333788661
0.064202532 0.83898073 0.77733189 1333788664
-0.044180181 0.81309712 0.80056882 1333729026
-0.04261427 0.81091338 0.80260998 1333731083
-0.040771183 0.81309712 0.80053395 1333730831
-0.038981635 0.81455284 0.79914415 1333731345
-0.037280809 0.81455284 0.79912668 1333731345
-0.0093987696 0.85749936 0.7583822 1333767357
-0.0078061926 0.85749936 0.75836599 1333768642
-0.0061982833 0.8589552 0.75697803 1333767362
-0.0045977156 0.86041099 0.7555902 1333756310
-0.0030124767 0.86041099 0.75557399 1333752712
-0.0014272378 0.86041099 0.75555772 1333739091
0.00015800071 0.86041099 0.7555415 1333738309
0.0017432387 0.86041099 0.75552529 1333728800
0.003328477 0.86041099 0.75550914 1333723136
0.0049137152 0.86041099 0.75549293 1333723136
0.0065129786 0.8589552 0.75684804 1333723137
0.0081018861 0.8589552 0.75683177 1333724161
0.0096907942 0.8589552 0.75681555 1333723906
0.011279701 0.8589552 0.75679934 1333731617
0.012868609 0.8589552 0.75678307 1333742401
0.014457516 0.8589552 0.75676686 1333749340
0.016046425 0.8589552 0.75675046 1333769366
0.017635334 0.8589552 0.75673425 1333780417
0.019224241 0.8589552 0.75671804 1333782249
0.020813148 0.8589552 0.75670177 1333784305
0.022402057 0.8589552 0.75668555 1333782517
0.023990963 0.8589552 0.75666928 1333779176
0.025521813 0.86041099 0.7552821 1333773786
0.027107053 0.86041099 0.75526589 1333773272
0.028757686 0.8589552 0.75662047 1333774808
0.030277526 0.86041099 0.75523353 1333775065
0.031862766 0.86041099 0.75521731 1333770954
0.052695584 0.83784586 0.77626258 1333787886
0.054337695 0.83784586 0.77624571 1333788400
0.055979818 0.83784586 0.77622902 1333788663
0.05762193 0.83784586 0.77621216 1333788664
0.059461225 0.83566225 0.77825063 1333788148
0.06110885 0.83566225 0.77823377 1333788662
0.062756464 0.83566225 0.7782169 1333788402
0.070173644 0.77670175 0.83368689 1333788659
0.071750693 0.77888542 0.83161354 1333787377
0.073391624 0.78034133 0.83022523 1333788148
-0.042488284 0.81191921 0.79931933 1333747288
-0.040695034 0.8133775 0.79793215 1333744716
-0.038994208 0.8133775 0.7979148 1333743430
-0.037171267 0.81556499 0.79584277 1333745222
-0.0353982 0.8170234 0.79445583 1333746250
-0.0094332416 0.85494047 0.75860023 1333771983
-0.0078179659 0.85639882 0.75721484 1333771469
-0.0062253885 0.85639882 0.75719851 1333771728
-0.0046211225 0.85785717 0.75581324 1333772757
-0.0030241944 0.85931557 0.75442809 1333773786
-0.0014433058 0.85785717 0.75578076 1333774557
0.00014560198 0.85785717 0.75576454 1333774552
0.0017315199 0.85931557 0.75437939 1333771982
0.0033167584 0.85931557 0.7543633 1333769154
0.0049123247 0.85785717 0.75571585 1333767869
0.0065012332 0.85785717 0.75569946 1333768128
0.0081078084 0.85639882 0.75705189 1333768128
0.0096790474 0.85785717 0.75566697 1333772748
0.011267955 0.85785717 0.75565076 1333776346
0.012885539 0.85639882 0.75700307 1333780966
0.014478116 0.85639882 0.7569868 1333786105
0.016034679 0.85785717 0.75560206 1333784818
0.017623588 0.85785717 0.75558579 1333783533
0.01925585 0.85639882 0.75693786 1333780458
0.020801403 0.85785717 0.75555325 1333779430
0.02239031 0.85785717 0.75553697 1333778921
0.023979217 0.85785717 0.75552076 1333779178
0.025568126 0.85785717 0.75550449 1333775839
0.027157037 0.85785717 0.75548828 1333768643
0.028745942 0.85785717 0.75547206 1333773008
0.030334851 0.85785717 0.75545579 1333777635
0.031923756 0.85785717 0.75543958 1333775575
0.033512663 0.85785717 0.75542319 1333765809
0.054325558 0.83671111 0.77505869 1333788402
0.055843595 0.83816946 0.77367443 1333788149
0.057482045 0.83816946 0.77365762 1333788406
0.059449043 0.83452362 0.77705956 1333788663
0.061096668 0.83452362 0.77704275 1333788666
0.062744282 0.83452362 0.77702588 1333788662
0.069946714 0.77764797 0.83033741 1333788662
0.071591347 0.77910632 0.82895178 1333788659
0.073378414 0.77910632 0.82893348 1333788660
-0.04263955 0.80854994 0.80013794 1333759870
-0.040796392 0.81074125 0.79806983 1333751148
-0.039006781 0.81220216 0.79668528 1333750634
-0.037305955 0.81220216 0.79666799 1333752672
-0.035488475 0.81439346 0.79459995 1333754213
-0.0062525463 0.85383743 0.75741369 1333771986
-0.0046328679 0.85675913 0.75466478 1333771729
-0.0030439594 0.85675913 0.75464845 1333769682
-0.0014550522 0.85675913 0.75463217 1333771224
0.00013385605 0.85675913 0.75461596 1333773532
0.0017227638 0.85675913 0.75459975 1333773532
0.0033116715 0.85675913 0.75458348 1333772251
0.0049005793 0.85675913 0.75456727 1333773536
0.0065034581 0.85529822 0.75591701 1333776103
0.0081136739 0.85383743 0.75726682 1333774819
0.0096886121 0.85529822 0.75588453 1333775842
0.01128119 0.85529822 0.75586814 1333776612
0.012902415 0.85383743 0.75721788 1333780205
0.014498662 0.85383743 0.75720155 1333779948
0.01609491 0.85383743 0.75718516 1333777638
0.017691156 0.85383743 0.75716883 1333776096
0.019287404 0.85383743 0.75715262 1333774302
0.020836655 0.85529822 0.7557705 1333774302
0.02242923 0.85529822 0.75575417 1333774556
0.024076143 0.85383743 0.7571035 1333778154
0.025614388 0.85529822 0.75572157 1333775078
0.027206967 0.85529822 0.7557053 1333768653
0.028734196 0.85675913 0.75432348 1333774546
0.030323105 0.85675913 0.75430727 1333778144
0.052554585 0.83703715 0.77252358 1333788402
0.054313418 0.8355763 0.77387184 1333788402
0.05595554 0.8355763 0.77385497 1333787889
0.057597652 0.8355763 0.77383828 1333788660
0.05956826 0.83192414 0.77723354 1333788662
0.061354615 0.83046323 0.77858144 1333788665
0.068142757 0.77641046 0.82906127 1333788405
0.069933482 0.77641046 0.82904297 1333788662
0.071578138 0.77787131 0.82766002 1333788659
0.073365204 0.77787131 0.82764173 1333788660
-0.04265219 0.80736822 0.79890186 1333762958
-0.040808987 0.80956334 0.79683775 1333761934
-0.039019357 0.81102675 0.79545593 1333762447
-0.037318528 0.81102675 0.79543847 1333762444
-0.035501007 0.81322193 0.79337454 1333762958
-0.0078605944 0.85273433 0.75627625 1333780467
-0.0062643471 0.85273433 0.75625986 1333776610
-0.0046446132 0.85566115 0.75351626 1333775068
-0.0030557048 0.85566115 0.75349998 1333773276
-0.0014667975 0.85566115 0.75348377 1333774046
0.00012211013 0.85566115 0.7534675 1333774046
0.0017110178 0.85566115 0.75345117 1333772762
0.0032999255 0.85566115 0.75343496 1333771740
0.004888833 0.85566115 0.75341868 1333772510
0.0065056277 0.85273433 0.75612926 1333772508
0.008101874 0.85273433 0.75611305 1333771224
0.0096981209 0.85273433 0.75609666 1333772758
0.011294368 0.85273433 0.75608033 1333772501
0.012919236 0.85127085 0.75742728 1333771987
0.014486861 0.85273433 0.75604773 1333771729
0.016083108 0.85273433 0.75603139 1333769424
0.017718986 0.85127085 0.75737816 1333770709
0.019318903 0.85127085 0.75736183 1333771220
0.020871852 0.85273433 0.7559824 1333773276
0.022468096 0.85273433 0.75596607 1333775329
0.024064345 0.85273433 0.75594974 1333780726
0.025602611 0.85419768 0.75457042 1333779956
0.027195191 0.85419768 0.75455409 1333773017
0.029212328 0.84468544 0.76339662 1333772760
0.030828757 0.84468544 0.76337999 1333765564
0.049265582 0.8359049 0.7713728 1333788659
0.051017057 0.83444154 0.77271837 1333788661
0.052542478 0.8359049 0.77133924 1333788660
0.054301281 0.83444154 0.77268481 1333788660
0.0559434 0.83444154 0.77266794 1333788659
0.057904765 0.83078301 0.77605677 1333788661
0.059556052 0.83078301 0.7760399 1333788662
0.061342381 0.8293196 0.77738512 1333788664
0.063829586 0.82053906 0.785541 1333788663
0.065506563 0.82053906 0.78552383 1333788664
0.071564928 0.77663642 0.82636827 1333788661
0.073127426 0.77883148 0.82430691 1333788404
0.074908979 0.77883148 0.82428873 1333788659
-0.04082159 0.80838549 0.79560572 1333760905
-0.03903193 0.80985141 0.79422647 1333760648
-0.037208863 0.81205034 0.79216653 1333760906
-0.035513539 0.81205034 0.79214919 1333760649
-0.03363283 0.81571525 0.78872764 1333761417
-0.031946681 0.81571525 0.78871047 1333761674
-0.030026685 0.82084608 0.78392762 1333762443
-0.028258663 0.82304496 0.78186828 1333763984
-0.026471913 0.82597691 0.77912819 1333763216
-0.024671935 0.82964182 0.77570754 1333762445
-0.023020646 0.82964182 0.77569067 1333758850
-0.0080443788 0.83843756 0.76737219 1333772513
-0.0046563596 0.85456312 0.75236768 1333775075
-0.0030674513 0.85456312 0.75235146 1333775333
-0.001478543 0.85456312 0.75233519 1333776104
0.00010884023 0.85163122 0.75504076 1333776104
0.0017079947 0.85016531 0.75638539 1333774305
0.0033079113 0.85016531 0.75636899 1333773025
0.0048975809 0.85163122 0.75499183 1333770969
0.0065077436 0.85016531 0.75633615 1333769682
0.0081340391 0.84796631 0.75836098 1333769425
0.0097075766 0.85016531 0.75630349 1333769419
0.01134488 0.84796631 0.75832814 1333769419
0.012950301 0.84796631 0.75831163 1333769676
0.014555722 0.84796631 0.7582953 1333769419
0.016161142 0.84796631 0.75827879 1333767627
0.017766563 0.84796631 0.75826246 1333768398
0.019371985 0.84796631 0.75824594 1333767631
0.020977406 0.84796631 0.75822961 1333772771
0.022582825 0.84796631 0.75821316 1333776103
0.02424253 0.84650034 0.75955701 1333780728
0.025851618 0.84650034 0.75954068 1333782773
0.027522327 0.84503436 0.7608844 1333776862
0.029200379 0.84356844 0.76222813 1333774819
0.042605042 0.83623862 0.76889551 1333783276
0.044092346 0.83843756 0.76683897 1333785075
0.04572162 0.83843756 0.76682228 1333787121
0.047509372 0.83623862 0.76884532 1333788665
0.049253467 0.83477271 0.77018845 1333787376
0.051004909 0.83330673 0.77153134 1333788405
0.052647028 0.83330673 0.77151465 1333788662
0.054469641 0.83110785 0.77353734 1333788662
0.056117266 0.83110785 0.77352053 1333788659
0.05821174 0.82597691 0.7782622 1333788662
0.060331888 0.82084608 0.78300357 1333788663
0.062140215 0.81938016 0.78434592 1333788664
0.063817188 0.81938016 0.78432888 1333788663
0.065494165 0.81938016 0.78431165 1333788663
0.067171142 0.81938016 0.78429455 1333788663
0.073338784 0.77540141 0.82505822 1333788663
-0.040834185 0.80720758 0.79437363 1333758850
-0.039044503 0.808676 0.79299706 1333757051
-0.037221398 0.81087881 0.79094106 1333758074
-0.035448223 0.81234729 0.78956467 1333755761
-0.033645298 0.81455004 0.7875089 1333756530
-0.031888638 0.81601852 0.78613269 1333757044
-0.030105894 0.81822127 0.78407705 1333758075
-0.028365748 0.81968969 0.78270108 1333760645
-0.02654369 0.82336098 0.77928686 1333760646
-0.024739975 0.82703221 0.77587283 1333760903
-0.023032852 0.82850075 0.77449709 1333759873
-0.021381563 0.82850075 0.77448022 1333758074
-0.0047978782 0.83731163 0.76616114 1333775074
-0.003168606 0.83731163 0.76614451 1333775333
-0.0015348737 0.83878016 0.76476955 1333775333
9.427905e-05 0.84538835 0.75864077 1333774820
0.0017033694 0.84538835 0.75862437 1333773793
0.0033124594 0.84538835 0.75860792 1333773537
0.0049113291 0.84685689 0.75723326 1333770967
0.0065306397 0.84538835 0.75857496 1333768659
0.0081397295 0.84538835 0.75855845 1333768916
0.0097275916 0.84685689 0.75718409 1333767625
0.011333013 0.84685689 0.75716758 1333767625
0.012967 0.84538835 0.75850916 1333768393
0.01457609 0.84538835 0.75849265 1333769935
0.016149275 0.84685689 0.7571184 1333767884
0.017794274 0.84538835 0.75845987 1333768398
0.019403363 0.84538835 0.75844336 1333770967
0.021012451 0.84538835 0.7584269 1333778162
0.022621544 0.84538835 0.75841039 1333783290
0.024284888 0.84391987 0.75975156 1333783547
0.025897646 0.84391987 0.75973511 1333781492
0.027571999 0.84245133 0.76107627 1333774553
0.029188428 0.84245133 0.76105982 1333776613
0.030908253 0.84024864 0.76307946 1333782782
0.032530189 0.84024864 0.76306301 1333769420
0.034228392 0.83878016 0.76440382 1333757341
0.035853997 0.83878016 0.76438719 1333767362
0.037563208 0.83731163 0.76572788 1333781241
0.039323401 0.83510894 0.76774734 1333783540
0.040958185 0.83510894 0.76773059 1333780970
0.042687573 0.83364046 0.76907116 1333783019
0.044227734 0.83510894 0.76769716 1333785075
0.045862511 0.83510894 0.76768041 1333787891
0.047602918 0.83364046 0.76902086 1333788672
0.04924136 0.83364046 0.76900417 1333788669
0.050992772 0.83217192 0.7703445 1333788666
0.052634891 0.83217192 0.77032763 1333788667
0.054577772 0.82850075 0.7737034 1333788669
0.056353036 0.82703221 0.77504343 1333788667
0.058454745 0.82189244 0.77977574 1333788668
0.060450841 0.81822127 0.78315085 1333788669
0.062127817 0.81822127 0.7831338 1333788671
0.064012773 0.81601852 0.78515184 1333788664
0.065695241 0.81601852 0.78513479 1333788663
0.067377724 0.81601852 0.78511757 1333788662
0.073325567 0.77416652 0.82376647 1333788663
-0.040846791 0.80602968 0.79314148 1333758850
-0.039057076 0.80750066 0.79176772 1333757823
-0.03723393 0.80970722 0.78971559 1333759100
-0.035538606 0.80970722 0.78969824 1333756786
-0.033657759 0.81338477 0.78629005 1333756778
-0.031971611 0.81338477 0.78627282 1333757806
-0.030118292 0.81706238 0.78286487 1333758840
-0.028283322 0.82073992 0.77945715 1333761154
-0.026555993 0.82221091 0.77808398 1333760645
-0.024752209 0.82588857 0.7746765 1333760645
-0.023097249 0.82588857 0.77465957 1333760899
-0.021393768 0.82735962 0.77328664 1333759613
-0.019742478 0.82735962 0.77326965 1333756027
-0.018050009 0.8288306 0.77189672 1333761939
-0.016346121 0.8310371 0.76984596 1333758107
-0.014704005 0.8310371 0.76982921 1333764019
-0.0097319903 0.83397919 0.76706713 1333768908
-0.0080684675 0.83618575 0.76501673 1333772249
-0.0064391955 0.83618575 0.7650001 1333773276
-0.0048099221 0.83618575 0.76498342 1333774817
-0.0031806501 0.83618575 0.76496679 1333775076
-0.0015468909 0.8376568 0.76359451 1333774819
7.9527141e-05 0.83912778 0.76222229 1333773537
0.0016971815 0.84133434 0.76017237 1333772767
0.0033070871 0.84280539 0.75880027 1333771228
0.0049198465 0.84280539 0.75878382 1333769943
0.0065326062 0.84280539 0.75876731 1333768914
0.0081453668 0.84280539 0.75875086 1333768914
0.009758126 0.84280539 0.75873423 1333766601
0.011370885 0.84280539 0.75871778 1333766858
0.012983645 0.84280539 0.75870126 1333768393
0.014596405 0.84280539 0.75868481 1333768650
0.016209166 0.84280539 0.75866836 1333766599
0.017821927 0.84280539 0.75865185 1333768912
0.019434685 0.84280539 0.7586354 1333772252
0.021047445 0.84280539 0.75861889 1333779448
0.022660205 0.84280539 0.75860244 1333783032
0.024327192 0.84133434 0.75994092 1333782005
0.02594362 0.84133434 0.75992441 1333780467
0.027560052 0.84133434 0.75990784 1333775070
0.029274333 0.83912778 0.76192373 1333777379
0.030896263 0.83912778 0.7619071 1333785344
0.032590773 0.8376568 0.76324534 1333780213
0.034292623 0.83618575 0.76458347 1333769162
0.035921894 0.83618575 0.7645669 1333764802
0.037676543 0.83397919 0.76658225 1333777652
0.039311316 0.83397919 0.76656556 1333781997
0.0409461 0.83397919 0.76654881 1333780712
0.042675465 0.83250821 0.76788682 1333783018
0.044313908 0.83250821 0.76787013 1333784560
0.045952357 0.83250821 0.76785326 1333788149
0.0475908 0.83250821 0.76783657 1333788672
0.04933852 0.8310371 0.76917422 1333788671
0.050980631 0.8310371 0.76915747 1333788668
0.052797664 0.8288306 0.77117223 1333788668
0.054565564 0.82735962 0.77250975 1333788668
0.056526717 0.82368201 0.77587867 1333788669
0.058442418 0.82073992 0.77857018 1333788669
0.060635373 0.81485581 0.78397024 1333788668
0.062317852 0.81485581 0.78395301 1333788670
0.064000338 0.81485581 0.78393579 1333788666
0.065682806 0.81485581 0.78391856 1333788664
0.067365289 0.81485581 0.78390139 1333788662
0.073312365 0.77293152 0.82247472 1333788662
0.075099424 0.77293152 0.82245642 1333788662
-0.042471305 0.80632526 0.790573 1333759107
-0.039069649 0.80632526 0.79053819 1333759360
-0.037368819 0.80632526 0.79052085 1333759102
-0.035551134 0.80853564 0.78847277 1333758074
-0.033781577 0.81000924 0.78710181 1333756784
-0.031984076 0.81221956 0.78505397 1333757041
-0.030063795 0.81737703 0.78029907 1333757813
-0.028295651 0.81958741 0.77825159 1333760642
-0.026508735 0.82253456 0.77552748 1333760386
-0.024764443 0.82474488 0.77348024 1333759873
-0.023109483 0.82474488 0.77346325 1333760896
-0.021405976 0.82621843 0.77209288 1333760126
-0.019754684 0.82621843 0.77207607 1333757309
-0.018062189 0.82769203 0.77070582 1333763478
-0.016414568 0.82769203 0.77068895 1333758875
-0.014766947 0.82769203 0.77067214 1333764786
-0.013119327 0.82769203 0.77065527 1333763769
-0.011405383 0.8313759 0.76725549 1333768139
-0.0097669363 0.8313759 0.76723868 1333769165
-0.0081092995 0.8328495 0.76586878 1333772249
-0.0064512407 0.83505982 0.76382238 1333772762
-0.0048219664 0.83505982 0.76380581 1333774819
-0.0031926939 0.83505982 0.76378906 1333775334
-0.0015589083 0.83653337 0.76241946 1333775847
6.7537549e-05 0.83800697 0.76104993 1333774050
0.0016852319 0.84021729 0.75900406 1333773535
0.003301661 0.84021729 0.75898743 1333771483
0.0049079247 0.84169084 0.75761807 1333770711
0.0065345191 0.84021729 0.75895435 1333768399
0.0081509482 0.84021729 0.7589379 1333768399
0.0097673777 0.84021729 0.75892127 1333768393
0.011358964 0.84169084 0.75755203 1333768650
0.013000236 0.84021729 0.7588883 1333768136
0.014584484 0.84169084 0.75751907 1333768907
0.016197242 0.84169084 0.75750256 1333767884
0.017849525 0.84021729 0.75883859 1333772511
0.019465953 0.84021729 0.75882214 1333776613
0.021082385 0.84021729 0.75880569 1333784064
0.022698814 0.84021729 0.75878906 1333783288
0.024315244 0.84021729 0.75877261 1333780204
0.025931671 0.84021729 0.75875598 1333779181
0.027640408 0.83800697 0.76076794 1333776610
0.029262345 0.83800697 0.76075137 1333779692
0.030953156 0.83653337 0.76208693 1333787392
0.032578759 0.83653337 0.7620703 1333783288
0.03428058 0.83505982 0.76340586 1333781489
0.035909846 0.83505982 0.76338917 1333782259
0.037664458 0.8328495 0.76540065 1333783287
0.039386455 0.8313759 0.76673597 1333782511
0.041024905 0.8313759 0.76671922 1333781741
0.042663351 0.8313759 0.76670253 1333783533
0.0443018 0.8313759 0.76668578 1333783276
0.045940243 0.8313759 0.76666892 1333785064
0.047578692 0.8313759 0.76665223 1333788672
0.049326383 0.82990235 0.76798731 1333788672
0.050968494 0.82990235 0.76797044 1333788668
0.052610613 0.82990235 0.76795375 1333788666
0.054673608 0.82474488 0.77266783 1333788664
0.05694817 0.81737703 0.77940917 1333788667
0.058940452 0.81369311 0.78277123 1333788669
0.060622934 0.81369311 0.782754 1333788666
0.062440343 0.81221956 0.78408837 1333788669
0.064126499 0.81221956 0.78407103 1333788668
0.06581264 0.81221956 0.78405386 1333788668
0.067352854 0.81369311 0.78268516 1333788405
0.073299147 0.77169651 0.82118297 1333788405
0.074856304 0.77390689 0.81913757 1333788662
-0.040783048 0.80514991 0.78932619 1333759874
-0.039082222 0.80514991 0.78930885 1333759617
-0.037258994 0.80736405 0.78726465 1333758588
-0.03556367 0.80736405 0.7872473 1333757816
-0.033794083 0.80884022 0.78587902 1333756273
-0.031996541 0.81105435 0.78383523 1333756016
-0.030143084 0.81474465 0.78044057 1333757045
-0.028402857 0.81622064 0.77907252 1333760128
-0.026580593 0.81991094 0.7756781 1333760384
-0.024860546 0.82138705 0.77431029 1333760897
-0.023121716 0.82360119 0.7722671 1333761408
-0.021466758 0.82360119 0.77225012 1333760894
-0.019766891 0.82507735 0.77088243 1333757819
-0.018115601 0.82507735 0.77086562 1333764245
-0.016426748 0.8265534 0.76949805 1333759132
-0.014779128 0.8265534 0.76948118 1333764529
-0.013086169 0.82876754 0.76743847 1333764027
-0.011390937 0.83171976 0.76472044 1333768140
-0.00975616 0.83171976 0.76470387 1333769934
-0.0081213843 0.83171976 0.76468712 1333772760
-0.0064632846 0.83393389 0.76264477 1333772249
-0.0048340112 0.83393389 0.76262808 1333774048
-0.003204739 0.83393389 0.76261145 1333774563
-0.0015709245 0.83541006 0.76124436 1333774563
5.4677246e-05 0.83541006 0.76122779 1333773795
0.001677481 0.83688611 0.75986093 1333772767
0.0032897119 0.83910024 0.75781912 1333771225
0.0049061412 0.83910024 0.75780249 1333770454
0.0065225707 0.83910024 0.75778604 1333769423
0.0081389993 0.83910024 0.75776941 1333769423
0.0097554279 0.83910024 0.75775295 1333769419
0.011371857 0.83910024 0.75773633 1333769419
0.012988287 0.83910024 0.75771987 1333768136
0.014604717 0.83910024 0.75770336 1333768907
0.016221145 0.83910024 0.75768679 1333770963
0.017837577 0.83910024 0.75767028 1333776360
0.019454004 0.83910024 0.75765371 1333779695
0.021070434 0.83910024 0.7576372 1333782778
0.022686865 0.83910024 0.75762063 1333783800
0.024303293 0.83910024 0.75760412 1333781229
0.026006484 0.83688611 0.75961208 1333781748
0.027628418 0.83688611 0.75959557 1333781748
0.029250355 0.83688611 0.759579 1333783031
0.030941136 0.83541006 0.76091188 1333784573
0.032566737 0.83541006 0.76089525 1333782514
0.034268536 0.83393389 0.76222813 1333782514
0.036017597 0.83171976 0.76423573 1333783540
0.037652373 0.83171976 0.76421899 1333782769
0.039374348 0.83024365 0.76555163 1333781998
0.04101279 0.83024365 0.76553494 1333781998
0.04265124 0.83024365 0.76551819 1333783278
0.044387888 0.82876754 0.76685071 1333782764
0.046030011 0.82876754 0.76683384 1333785321
0.047672123 0.82876754 0.76681715 1333788671
0.049478065 0.8265534 0.76882398 1333788672
0.051125687 0.8265534 0.76880711 1333788671
0.052773308 0.8265534 0.7687903 1333788663
0.054661375 0.82360119 0.77147156 1333788664
0.056935802 0.81622064 0.77819973 1333788665
0.058928017 0.81253046 0.78155506 1333788666
0.060741734 0.81105435 0.78288686 1333788148
0.062427878 0.81105435 0.78286952 1333788662
0.064114027 0.81105435 0.78285229 1333788405
0.065800175 0.81105435 0.78283507 1333788664
0.067486331 0.81105435 0.78281772 1333788405
0.073285945 0.77046162 0.81989121 1333788662
0.075073004 0.77046162 0.81987292 1333788664
0.076860063 0.77046162 0.81985462 1333788667
-0.040795621 0.80397457 0.78809679 1333761159
-0.039094795 0.80397457 0.78807932 1333761159
-0.037393965 0.80397457 0.78806204 1333758849
-0.035576202 0.80619252 0.78602195 1333757050
-0.033880875 0.80619252 0.78600466 1333757557
-0.032114938 0.80767113 0.78463894 1333756785
-0.030255904 0.81136775 0.78125083 1333757043
-0.028478507 0.81358576 0.77921116 1333759871
-0.026652507 0.81728226 0.77582347 1333760895
-0.024872823 0.82023954 0.77310997 1333760895
-0.023212356 0.82023954 0.77309304 1333761151
-0.021478992 0.82245749 0.77105385 1333762435
-0.019779099 0.82393616 0.76968884 1333759877
-0.018127808 0.82393616 0.76967198 1333763989
-0.016438928 0.82541484 0.76830703 1333759130
-0.014791305 0.82541484 0.76829016 1333765040
-0.013143686 0.82541484 0.76827329 1333764537
-0.011456191 0.82763273 0.76623476 1333769162
-0.00979116 0.8291114 0.76486999 1333770191
-0.0081334691 0.83059001 0.7635054 1333773275
-0.0064753285 0.83280796 0.76146704 1333773276
-0.0048460551 0.83280796 0.76145029 1333774303
-0.0032167828 0.83280796 0.76143372 1333775076
-0.0015829417 0.83428663 0.76006931 1333775076
4.2660475e-05 0.83428663 0.76005274 1333773793
0.0016682637 0.83428663 0.76003611 1333772764
0.0032874246 0.83576524 0.758672 1333769940
0.0048941919 0.83798319 0.75663406 1333769426
0.0065312921 0.83576524 0.7586388 1333768908
0.0081270505 0.83798319 0.7566011 1333769165
0.00974348 0.83798319 0.75658447 1333770192
0.011359908 0.83798319 0.75656801 1333770962
0.012976338 0.83798319 0.75655138 1333771477
0.014592767 0.83798319 0.75653493 1333771734
0.016209196 0.83798319 0.75651842 1333771735
0.017825626 0.83798319 0.75650185 1333777647
0.019442055 0.83798319 0.75648534 1333784316
0.021058485 0.83798319 0.75646877 1333783288
0.022674914 0.83798319 0.75645226 1333782259
0.024372563 0.83576524 0.75845629 1333780975
0.025994495 0.83576524 0.75843972 1333783288
0.027616428 0.83576524 0.75842309 1333787648
0.029238366 0.83576524 0.75840652 1333785083
0.030929118 0.83428663 0.75973684 1333784826
0.032554723 0.83428663 0.75972021 1333783026
0.034370732 0.83059001 0.7630707 1333782769
0.036005512 0.83059001 0.76305395 1333781998
0.037640288 0.83059001 0.7630372 1333781741
0.039362233 0.8291114 0.76436728 1333781484
0.041000683 0.8291114 0.76435059 1333781741
0.042733639 0.82763273 0.76568055 1333783278
0.044375751 0.82763273 0.76566368 1333784050
0.046170644 0.82541484 0.76766676 1333786865
0.04781827 0.82541484 0.76764989 1333788671
0.049575072 0.82393616 0.76897961 1333788672
0.051226359 0.82393616 0.76896262 1333788672
0.05287765 0.82393616 0.76894581 1333788669
0.054829434 0.82023954 0.77229494 1333788670
0.056923434 0.81506431 0.77699023 1333788671
0.058915582 0.81136775 0.78033888 1333788672
0.060729269 0.80988908 0.78166795 1333788667
0.062415414 0.80988908 0.78165078 1333788669
0.064309381 0.80767113 0.78365284 1333788666
0.06578771 0.80988908 0.78161621 1333788669
0.067473859 0.80988908 0.78159899 1333788663
0.073272727 0.76922661 0.81859946 1333788663
0.074829958 0.7714445 0.816562 1333788665
0.076611519 0.7714445 0.81654382 1333788665
0.078393072 0.7714445 0.81652564 1333788665
-0.040897191 0.80131805 0.78821325 1333760137
-0.039192691 0.80131805 0.78819579 1333760650
-0.037488192 0.80131805 0.78817832 1333760134
-0.035705708 0.80279917 0.78681517 1333757821
-0.033893406 0.80502093 0.78477919 1333758583
-0.03212744 0.80650216 0.78341615 1333757041
-0.03033532 0.80872387 0.78138036 1333757040
-0.028585864 0.8102051 0.78001744 1333760381
-0.02675429 0.81390798 0.77663624 1333761406
-0.024941063 0.81761092 0.77325535 1333761664
-0.023224633 0.81909209 0.77189285 1333760894
-0.021491226 0.82131386 0.76985753 1333762436
-0.019836266 0.82131386 0.76984072 1333760391
-0.018140014 0.82279503 0.76847839 1333763475
-0.016488725 0.82279503 0.76846141 1333759385
-0.014837437 0.82279503 0.7684446 1333765553
-0.013155865 0.82427627 0.76708239 1333764791
-0.011468329 0.82649791 0.76504773 1333770188
-0.0098262131 0.82649791 0.76503086 1333771217
-0.0081455549 0.82946032 0.76232374 1333774043
-0.0065107765 0.82946032 0.76230699 1333774301
-0.0048580989 0.83168209 0.76027268 1333774559
-0.0032288267 0.83168209 0.76025599 1333775585
-0.0015995534 0.83168209 0.76023936 1333775585
3.0643223e-05 0.83316326 0.75887769 1333773024
0.0016562464 0.83316326 0.75886106 1333771995
0.0032818494 0.83316326 0.75884449 1333769427
0.0048973686 0.83464444 0.75748289 1333768914
0.0065193013 0.83464444 0.75746644 1333769676
0.0081412354 0.83464444 0.75744981 1333770191
0.0097315302 0.83686614 0.75541615 1333770449
0.011347959 0.83686614 0.75539953 1333771476
0.012964389 0.83686614 0.75538307 1333770965
0.014580818 0.83686614 0.75536644 1333771736
0.016197249 0.83686614 0.75534999 1333771484
0.017813679 0.83686614 0.75533336 1333777395
0.019430107 0.83686614 0.75531691 1333784061
0.021116706 0.83464444 0.75731713 1333781748
0.022738639 0.83464444 0.75730056 1333777893
0.024360573 0.83464444 0.75728393 1333779692
0.025982507 0.83464444 0.75726736 1333783542
0.027665898 0.83316326 0.75859511 1333782257
0.029291499 0.83316326 0.75857848 1333778402
0.030917102 0.83316326 0.75856191 1333780201
0.032615174 0.83168209 0.75988942 1333783023
0.034358647 0.82946032 0.76188904 1333782509
0.035993427 0.82946032 0.76187229 1333781485
0.037711676 0.82797915 0.76319981 1333781485
0.039437268 0.82649791 0.76452708 1333779943
0.04107938 0.82649791 0.76451027 1333780457
0.042721499 0.82649791 0.76449353 1333782763
0.044510845 0.82427627 0.76649266 1333783792
0.046158463 0.82427627 0.76647586 1333786096
0.047911577 0.82279503 0.76780283 1333788670
0.049562868 0.82279503 0.76778603 1333788670
0.051326986 0.82131386 0.76911294 1333788669
0.05298195 0.82131386 0.76909596 1333788668
0.0550575 0.81612974 0.77378213 1333788671
0.057034902 0.81242681 0.7771244 1333788672
0.058903143 0.8102051 0.77912283 1333788671
0.060716804 0.80872387 0.78044921 1333788666
0.062402949 0.80872387 0.78043187 1333788666
0.064089105 0.80872387 0.7804147 1333788664
0.065775245 0.80872387 0.78039747 1333788668
0.067461394 0.80872387 0.78038013 1333788664
0.073259518 0.76799172 0.81730771 1333788664
0.074816786 0.77021337 0.8152743 1333788664
0.076598354 0.77021337 0.81525612 1333788664
0.078379907 0.77021337 0.81523782 1333787890
-0.039205287 0.80014014 0.78696376 1333763986
-0.037500799 0.80014014 0.7869463 1333763476
-0.035718281 0.80162376 0.78558582 1333761934
-0.033905942 0.80384934 0.78355372 1333762700
-0.032210622 0.80384934 0.78353637 1333760386
-0.030448291 0.80533308 0.78217602 1333761409
-0.028598301 0.80904233 0.77880138 1333762179
-0.026766662 0.81275159 0.77542675 1333762435
-0.02500936 0.81497717 0.77339524 1333764491
-0.023289232 0.81646097 0.77203542 1333764238
-0.021576442 0.81794465 0.77067554 1333763980
-0.019848499 0.82017022 0.76864439 1333761417
-0.018152222 0.8216539 0.76728481 1333764243
-0.016500933 0.8216539 0.76726782 1333761429
-0.014849645 0.8216539 0.76725096 1333768367
-0.013168046 0.82313764 0.76589149 1333765815
-0.011520427 0.82313764 0.76587462 1333771983
-0.0098383529 0.82536316 0.76384389 1333774295
-0.0081769377 0.82684684 0.76248461 1333779178
-0.0065228604 0.82833058 0.76112539 1333779948
-0.0048880833 0.82833058 0.76110864 1333779177
-0.0032533067 0.82833058 0.76109195 1333778411
-0.0016115973 0.83055615 0.75906163 1333778668
1.767373e-05 0.83055615 0.75904495 1333778670
0.0016469466 0.83055615 0.75902832 1333776871
0.0032698323 0.83203983 0.75766945 1333774561
0.0048853778 0.83352357 0.75631052 1333774303
0.0065073119 0.83352357 0.75629395 1333775069
0.0081292456 0.83352357 0.75627732 1333776611
0.0097195804 0.83574909 0.75424767 1333776610
0.011373113 0.83352357 0.75624424 1333776610
0.012995046 0.83352357 0.75622767 1333775072
0.01456887 0.83574909 0.75419813 1333776358
0.016185299 0.83574909 0.7541815 1333776612
0.01780173 0.83574909 0.75416505 1333781239
0.01948278 0.83352357 0.75616127 1333783288
0.021104716 0.83352357 0.75614464 1333776605
0.022726646 0.83352357 0.75612819 1333772240
0.024348579 0.83352357 0.75611156 1333776608
0.026028274 0.83203983 0.75743663 1333781231
0.02765388 0.83203983 0.75742006 1333779689
0.029442232 0.82833058 0.76075757 1333776860
0.031145778 0.82684684 0.76208252 1333778916
0.032784227 0.82684684 0.76206565 1333779941
0.034422673 0.82684684 0.76204896 1333780968
0.036061116 0.82684684 0.76203221 1333781228
0.037783012 0.82536316 0.76335692 1333782514
0.039555803 0.82313764 0.76535231 1333781741
0.041203424 0.82313764 0.76533544 1333782511
0.042851042 0.82313764 0.76531863 1333783792
0.044596791 0.8216539 0.76664305 1333783535
0.046248078 0.8216539 0.76662612 1333785069
0.047899369 0.8216539 0.76660925 1333786868
0.049659792 0.82017022 0.76793361 1333787121
0.051314756 0.82017022 0.76791662 1333787121
