# .PCD v0.7 - Point Cloud Data file format
VERSION 0.7
FIELDS x y z rgb
SIZE 4 4 4 4
TYPE F F F U
COUNT 1 1 1 1
WIDTH 1055
HEIGHT 1
VIEWPOINT 0 0 0 1 0 0 0
POINTS 1055
DATA ascii
-0.0073238811 0.90739393 0.85397178 1333780703
-0.0056762602 0.90739393 0.85395497 1333780449
-0.0040286407 0.90739393 0.8539381 1333783019
-0.0023810198 0.90739393 0.85392129 1333779679
-0.00073339918 0.90739393 0.85390443 1333779165
0.00091263745 0.90933794 0.85157961 1333778911
0.0025547531 0.90933794 0.85156286 1333780197
0.0041968697 0.90933794 0.85154605 1333779429
0.0058389856 0.90933794 0.8515293 1333780715
0.0075047016 0.90739393 0.8538202 1333780714
0.0091523221 0.90739393 0.85380322 1333780714
0.010799942 0.90739393 0.85378635 1333780716
0.012447562 0.90739393 0.85376954 1333780716
0.014049565 0.90933794 0.85144532 1333779688
0.015691681 0.90933794 0.85142845 1333780973
0.017333798 0.90933794 0.85141176 1333780968
0.018975914 0.90933794 0.85139489 1333780968
0.020685663 0.90739393 0.85368532 1333780459
0.022333285 0.90739393 0.85366845 1333780459
0.023902262 0.90933794 0.85134447 1333778147
0.025628526 0.90739393 0.85363477 1333777376
0.027276145 0.90739393 0.85361791 1333777121
0.028923767 0.90739393 0.8536011 1333776606
0.030638494 0.90609789 0.85512221 1333777625
0.032289784 0.90609789 0.85510522 1333774541
0.033941075 0.90609789 0.85508835 1333774530
0.035592366 0.90609789 0.85507154 1333775815
0.037325438 0.90480185 0.85659242 1333777348
0.038980395 0.90480185 0.85657543 1333777861
0.040635359 0.90480185 0.85655862 1333778117
0.042290319 0.90480185 0.85654163 1333777603
0.044089966 0.90285772 0.85883117 1333776317
0.045850568 0.90156162 0.8603518 1333777859
0.047514703 0.90156162 0.86033481 1333777863
0.049178831 0.90156162 0.86031777 1333776835
0.050954111 0.90026563 0.86183828 1333777092
0.052621908 0.90026563 0.86182117 1333777349
0.054467432 0.89832151 0.86411023 1333777862
0.056140743 0.89832151 0.86409312 1333778377
0.057939868 0.89702553 0.86561328 1333777088
0.059811082 0.8950814 0.86790222 1333776318
-0.033774018 0.9049567 0.85458714 1333778125
-0.032122727 0.9049567 0.85457033 1333777609
-0.030540127 0.90365815 0.85609007 1333776581
-0.028982701 0.90171027 0.85837817 1333776321
-0.027230209 0.90365815 0.85605615 1333775550
-0.025575249 0.90365815 0.85603929 1333774526
-0.023920292 0.90365815 0.85602236 1333778896
-0.022214986 0.9049567 0.854469 1333779411
-0.020563697 0.9049567 0.85445201 1333778896
-0.018912407 0.9049567 0.85443521 1333778127
-0.017261116 0.9049567 0.85441834 1333780441
-0.015609828 0.9049567 0.85440135 1333779675
-0.013926541 0.90625536 0.85284829 1333780960
-0.01227892 0.90625536 0.85283142 1333779675
-0.010631301 0.90625536 0.85281456 1333779162
-0.00898368 0.90625536 0.85279775 1333779161
-0.0073360605 0.90625536 0.85278088 1333779931
-0.0056884396 0.90625536 0.85276401 1333778139
-0.0040258504 0.90820318 0.85044301 1333780710
-0.0023837346 0.90820318 0.85042626 1333779169
-0.00074161746 0.90820318 0.85040945 1333777884
0.00090049865 0.90820318 0.8503927 1333777885
0.0025426142 0.90820318 0.85037583 1333780198
0.0041847304 0.90820318 0.85035902 1333780200
0.0058268462 0.90820318 0.85034227 1333780714
0.0074689626 0.90820318 0.85032547 1333779431
0.0091110785 0.90820318 0.85030872 1333780716
0.010753194 0.90820318 0.85029185 1333780205
0.01239531 0.90820318 0.85027516 1333780205
0.014037426 0.90820318 0.85025829 1333779433
0.015679542 0.90820318 0.85024148 1333779690
0.017321659 0.90820318 0.85022473 1333780198
0.018963777 0.90820318 0.85020787 1333780968
0.02060589 0.90820318 0.85019118 1333779948
0.022248007 0.90820318 0.85017431 1333779948
0.023890123 0.90820318 0.85015762 1333778922
0.02553224 0.90820318 0.85014075 1333778665
0.027263965 0.90625536 0.85242701 1333779690
0.028911587 0.90625536 0.85241014 1333778405
0.030626288 0.9049567 0.85392857 1333777887
0.032277577 0.9049567 0.85391164 1333775059
0.033928867 0.9049567 0.85389477 1333772990
0.035580158 0.9049567 0.8538779 1333775046
0.037313204 0.90365815 0.85539609 1333777093
0.038968161 0.90365815 0.85537916 1333777350
0.040623125 0.90365815 0.8553623 1333777092
0.042278085 0.90365815 0.85534531 1333777092
0.044077694 0.90171027 0.85763097 1333776060
0.045738164 0.90171027 0.85761404 1333777859
0.047398623 0.90171027 0.85759705 1333777351
0.04916653 0.90041161 0.85911489 1333777094
0.05094178 0.89911306 0.86063272 1333777349
0.052609582 0.89911306 0.86061561 1333777349
0.054455068 0.89716518 0.86290061 1333778121
0.056128368 0.89716518 0.86288357 1333777863
0.057927478 0.89586657 0.8644011 1333775036
0.059604451 0.89586657 0.86438406 1333775036
-0.033862282 0.90251446 0.8549276 1333779154
-0.032134935 0.90381563 0.85337669 1333782739
-0.030552361 0.90251446 0.8548938 1333786337
-0.028897403 0.90251446 0.85487682 1333786076
-0.027242443 0.90251446 0.85486001 1333783249
-0.025587482 0.90251446 0.85484302 1333779405
-0.023878483 0.90381563 0.85329223 1333779920
-0.022227194 0.90381563 0.85327542 1333778385
-0.020575905 0.90381563 0.85325843 1333780184
-0.018924614 0.90381563 0.85324156 1333779416
-0.017233962 0.90511674 0.85169089 1333780701
-0.015586343 0.90511674 0.85167408 1333779932
-0.013938721 0.90511674 0.85165721 1333780960
-0.012291102 0.90511674 0.8516404 1333779933
-0.010643481 0.90511674 0.85162354 1333780191
-0.0089958599 0.90511674 0.85160667 1333778905
-0.0073482399 0.90511674 0.85158986 1333780704
-0.005700619 0.90511674 0.85157299 1333779168
-0.0040529994 0.90511674 0.85155618 1333780967
-0.0024053785 0.90511674 0.85153931 1333780968
-0.00075375679 0.90706837 0.84922242 1333780198
0.00088835933 0.90706837 0.84920567 1333780968
0.0025304749 0.90706837 0.84918886 1333782510
0.004172591 0.90706837 0.84917212 1333780714
0.0058147069 0.90706837 0.84915525 1333781742
0.0074568233 0.90706837 0.84913856 1333780714
0.0090989387 0.90706837 0.84912169 1333780714
0.010741054 0.90706837 0.84910488 1333780716
0.012383171 0.90706837 0.84908813 1333783030
0.014025287 0.90706837 0.84907126 1333780716
0.015667403 0.90706837 0.84905457 1333780716
0.01730952 0.90706837 0.84903771 1333781485
0.018951638 0.90706837 0.84902102 1333781742
0.020593751 0.90706837 0.84900415 1333780974
0.022235868 0.90706837 0.84898728 1333780459
0.02382561 0.90836948 0.84743774 1333778922
0.025520099 0.90706837 0.84895372 1333778665
0.027162217 0.90706837 0.84893703 1333778664
0.028899407 0.90511674 0.85121912 1333778664
0.030547028 0.90511674 0.85120225 1333780198
0.032194648 0.90511674 0.85118544 1333776343
0.03391666 0.90381563 0.85270119 1333774020
0.03556795 0.90381563 0.85268432 1333775562
0.037219238 0.90381563 0.85266733 1333776839
0.038870528 0.90381563 0.85265052 1333777352
0.040610891 0.90251446 0.85416603 1333777608
0.042265851 0.90251446 0.85414904 1333778893
0.043920811 0.90251446 0.85413218 1333777348
0.045575768 0.90251446 0.85411525 1333777348
0.047386348 0.90056276 0.85639673 1333777094
0.049046811 0.90056276 0.85637975 1333777094
0.050818361 0.89926165 0.85789502 1333777092
0.052597251 0.89796048 0.85941005 1333777092
0.054442693 0.89600879 0.86169118 1333777863
0.056116 0.89600879 0.86167407 1333778120
0.057789311 0.89600879 0.86165696 1333776317
0.059592053 0.89470768 0.86317176 1333776317
-0.035529472 0.90137076 0.85374826 1333777354
-0.033874515 0.90137076 0.85373145 1333778896
-0.032147136 0.9026745 0.8521831 1333785296
-0.030564595 0.90137076 0.85369754 1333788672
-0.028909637 0.90137076 0.85368067 1333788672
-0.027193272 0.9026745 0.85213244 1333788672
-0.02554198 0.9026745 0.85211545 1333785319
-0.023890689 0.9026745 0.85209864 1333779407
-0.0222394 0.9026745 0.85208178 1333776074
-0.020541379 0.90397817 0.85053366 1333779414
-0.01889376 0.90397817 0.85051686 1333779415
-0.017246142 0.90397817 0.85049999 1333779672
-0.015598522 0.90397817 0.85048318 1333779159
-0.0139509 0.90397817 0.85046631 1333780188
-0.012303279 0.90397817 0.85044944 1333779674
-0.010655659 0.90397817 0.85043263 1333779674
-0.0090080407 0.90397817 0.85041577 1333778904
-0.0073604202 0.90397817 0.8503989 1333780960
-0.0057127993 0.90397817 0.85038209 1333779937
-0.0040651797 0.90397817 0.85036522 1333780966
-0.002408012 0.90593362 0.84805226 1333780968
-0.00076589559 0.90593362 0.84803551 1333781226
0.00087622047 0.90593362 0.84801871 1333781740
0.0025183361 0.90593362 0.84800196 1333781740
0.0041604517 0.90593362 0.84798509 1333778405
0.0057905847 0.90723723 0.84643775 1333779947
0.0074446839 0.90593362 0.84795153 1333781228
0.0090674786 0.90723723 0.84640431 1333780457
0.010728915 0.90593362 0.84791797 1333779431
0.012344371 0.90723723 0.84637076 1333781230
0.013982818 0.90723723 0.84635401 1333779690
0.015621264 0.90723723 0.84633726 1333780205
0.017259711 0.90723723 0.84632045 1333781742
0.018898157 0.90723723 0.8463037 1333781742
0.020536605 0.90723723 0.84628701 1333780718
0.022175051 0.90723723 0.84627026 1333780205
0.023813495 0.90723723 0.8462534 1333779179
0.02550796 0.90593362 0.84776682 1333778922
0.027150078 0.90593362 0.84775001 1333777381
0.028792193 0.90593362 0.84773314 1333777895
0.030534849 0.90397817 0.85001135 1333779430
0.03218247 0.90397817 0.84999448 1333776089
0.033830084 0.90397817 0.84997767 1333776587
0.035555743 0.9026745 0.85149074 1333775045
0.03720703 0.9026745 0.85147375 1333776068
0.038858321 0.9026745 0.85145688 1333777353
0.040509608 0.9026745 0.85144007 1333777353
0.042253617 0.90137076 0.8529529 1333777610
0.043908577 0.90137076 0.85293591 1333777349
0.045563534 0.90137076 0.85291892 1333777349
0.047374073 0.89941525 0.85519654 1333777094
0.049141925 0.89811164 0.85670912 1333776836
0.050917123 0.89680797 0.85822153 1333775550
0.052584924 0.89680797 0.85820448 1333776577
0.054430325 0.8948524 0.86048168 1333777346
0.056103636 0.8948524 0.86046445 1333777860
0.057776943 0.8948524 0.86044741 1333776317
0.059579656 0.89354885 0.86195958 1333776574
-0.035541706 0.90022713 0.852552 1333777353
-0.033886749 0.90022713 0.85253513 1333781208
-0.032159343 0.90153331 0.85098952 1333783000
-0.030576829 0.90022713 0.85250121 1333788672
-0.028921871 0.90022713 0.85248435 1333788672
-0.02726691 0.90022713 0.85246742 1333788672
-0.025554184 0.90153331 0.85092187 1333788670
-0.023902897 0.90153331 0.850905 1333781970
-0.022251608 0.90153331 0.85088819 1333778385
-0.020553561 0.90283954 0.84934276 1333780956
-0.01890594 0.90283954 0.84932595 1333779929
-0.017258322 0.90283954 0.84930909 1333780700
-0.015610701 0.90283954 0.84929222 1333780705
-0.01396308 0.90283954 0.84927541 1333781734
-0.01231546 0.90283954 0.84925854 1333782246
-0.01066784 0.90283954 0.84924167 1333781476
-0.0090202186 0.90283954 0.84922487 1333781219
-0.0073725996 0.90283954 0.849208 1333783275
-0.0057249786 0.90283954 0.84919119 1333782766
-0.0040622675 0.90479875 0.8468821 1333782766
-0.0024201514 0.90479875 0.84686536 1333782252
-0.00077803491 0.90479875 0.84684849 1333783023
0.00086313317 0.90610498 0.84530371 1333782769
0.0025015799 0.90610498 0.84528697 1333782511
0.0041400259 0.90610498 0.84527028 1333781228
0.0057784729 0.90610498 0.84525341 1333781742
0.0074169198 0.90610498 0.84523672 1333780714
0.0090553658 0.90610498 0.84521997 1333781999
0.010693813 0.90610498 0.8452031 1333780717
0.012332259 0.90610498 0.84518641 1333782001
0.013970706 0.90610498 0.84516966 1333781485
0.015609152 0.90610498 0.84515297 1333782257
0.0172476 0.90610498 0.84513611 1333782257
0.018886045 0.90610498 0.84511936 1333784826
0.020524494 0.90610498 0.84510267 1333783032
0.022162938 0.90610498 0.84508592 1333783032
0.023801384 0.90610498 0.84506911 1333781491
0.02543983 0.90610498 0.84505236 1333780206
0.027078278 0.90610498 0.84503567 1333777895
0.028780054 0.90479875 0.84654629 1333778409
0.03042217 0.90479875 0.84652942 1333781227
0.032170288 0.90283954 0.84880358 1333776858
0.033817906 0.90283954 0.84878677 1333776332
0.035465527 0.90283954 0.8487699 1333774276
0.037194826 0.90153331 0.85028017 1333775042
0.038846117 0.90153331 0.8502633 1333777099
0.040497407 0.90153331 0.85024631 1333777093
0.042148698 0.90153331 0.8502295 1333776836
0.043896344 0.90022713 0.85173965 1333777859
0.0455513 0.90022713 0.85172266 1333778630
0.04720626 0.90022713 0.85170579 1333777346
0.049022257 0.89826781 0.85397923 1333777346
0.05079376 0.89696163 0.85548913 1333777088
0.052572597 0.89565539 0.85699904 1333777602
0.054417957 0.89369613 0.85927212 1333777346
0.05609126 0.89369613 0.85925502 1333777603
0.057764567 0.89369613 0.85923791 1333777601
0.059437878 0.89369613 0.8592208 1333777601
0.061244234 0.89238995 0.86073035 1333776574
-0.03555394 0.89908344 0.85135585 1333777863
-0.033898983 0.89908344 0.85133886 1333782490
-0.032171551 0.90039223 0.84979588 1333780188
-0.030589061 0.89908344 0.85130507 1333780188
-0.028934104 0.89908344 0.85128808 1333786590
-0.027217682 0.90039223 0.84974509 1333788661
-0.025566392 0.90039223 0.84972829 1333788672
-0.023915105 0.90039223 0.84971142 1333780960
-0.022263816 0.90039223 0.84969443 1333778134
-0.020565741 0.90170091 0.84815186 1333779933
-0.018918119 0.90170091 0.84813499 1333779675
-0.017270502 0.90170091 0.84811819 1333780704
-0.015622882 0.90170091 0.8481012 1333780451
-0.013927102 0.90366399 0.84579587 1333781479
-0.012284988 0.90366399 0.84577906 1333781735
-0.010642871 0.90366399 0.84576231 1333781735
-0.009000754 0.90366399 0.8457455 1333781220
-0.0073586386 0.90366399 0.84572875 1333782762
-0.0057371589 0.90170091 0.84800011 1333781997
-0.0040744068 0.90366399 0.84569508 1333781740
-0.0024322907 0.90366399 0.84567833 1333780968
-0.00079017424 0.90366399 0.84566152 1333782767
0.00085194228 0.90366399 0.84564477 1333782768
0.0024894683 0.90497273 0.84410268 1333781998
0.0041279146 0.90497273 0.84408593 1333780716
0.005766361 0.90497273 0.84406906 1333780716
0.007404808 0.90497273 0.84405237 1333779176
0.009043254 0.90497273 0.84403563 1333780718
0.010681701 0.90497273 0.84401894 1333780205
0.012320149 0.90497273 0.84400207 1333781233
0.013958595 0.90497273 0.84398538 1333781231
0.015597039 0.90497273 0.84396863 1333782002
0.017235488 0.90497273 0.84395176 1333781489
0.018873932 0.90497273 0.84393507 1333782773
0.02051238 0.90497273 0.84391832 1333780979
0.022150826 0.90497273 0.84390163 1333780979
0.023789272 0.90497273 0.84388477 1333780722
0.02542772 0.90497273 0.84386802 1333779950
0.027066166 0.90497273 0.84385133 1333777640
0.028704612 0.90497273 0.84383458 1333778412
0.030410031 0.90366399 0.8453424 1333781484
0.032052148 0.90366399 0.84532571 1333773518
0.033694264 0.90366399 0.84530884 1333775302
0.035453346 0.90170091 0.84757888 1333775560
0.037100967 0.90170091 0.84756202 1333776839
0.038748588 0.90170091 0.84754515 1333777609
0.0404852 0.90039223 0.84905273 1333777861
0.04213649 0.90039223 0.84903586 1333777348
0.043787781 0.90039223 0.84901905 1333777601
0.045539066 0.89908344 0.85052651 1333777601
0.047194026 0.89908344 0.85050952 1333776313
0.049009986 0.89712036 0.85277903 1333778112
0.050670452 0.89712036 0.8527621 1333777603
0.05244559 0.89581156 0.85426927 1333777603
0.054228071 0.89450288 0.85577637 1333777603
0.056078892 0.89253974 0.85804552 1333777603
0.057752199 0.89253974 0.85802829 1333777603
0.059554867 0.89123106 0.85953528 1333777346
0.061231837 0.89123106 0.85951817 1333776576
0.063113853 0.88926792 0.86178696 1333776576
0.064796336 0.88926792 0.8617698 1333777088
-0.03568593 0.89597291 0.85244483 1333777609
-0.034025468 0.89597291 0.85242784 1333778380
-0.032256261 0.8979398 0.85012561 1333776843
-0.030601298 0.8979398 0.85010874 1333774787
-0.028946342 0.8979398 0.85009181 1333778370
-0.027229888 0.8992511 0.84855151 1333782996
-0.025578598 0.8992511 0.84853464 1333783004
-0.02392731 0.8992511 0.84851784 1333783004
-0.022276022 0.8992511 0.84850085 1333778648
-0.020577921 0.90056241 0.84696084 1333780447
-0.018930299 0.90056241 0.84694397 1333780962
-0.017282682 0.90056241 0.84692711 1333781989
-0.015635062 0.90056241 0.8469103 1333779938
-0.01393924 0.90252918 0.8446089 1333781222
-0.012297126 0.90252918 0.84459215 1333781735
-0.010655009 0.90252918 0.84457535 1333781735
-0.0090128928 0.90252918 0.84455848 1333781735
-0.0073707779 0.90252918 0.84454173 1333783534
-0.0057493383 0.90056241 0.84680921 1333781226
-0.0040865452 0.90252918 0.84450817 1333780969
-0.00244443 0.90252918 0.84449136 1333781737
-0.00080231309 0.90252918 0.84447461 1333782509
0.00083980296 0.90252918 0.84445775 1333781998
0.0024773562 0.90384048 0.84291834 1333781484
0.0041158027 0.90384048 0.84290159 1333781231
0.0057423478 0.90515172 0.84136218 1333782002
0.0073926956 0.90384048 0.84286803 1333780717
0.0090311421 0.90384048 0.84285134 1333783030
0.010669589 0.90384048 0.84283447 1333782002
0.012308035 0.90384048 0.84281772 1333782516
0.013946482 0.90384048 0.84280103 1333783802
0.015584928 0.90384048 0.84278429 1333784316
0.017223375 0.90384048 0.84276748 1333783032
0.018861821 0.90384048 0.84275073 1333782517
0.020500269 0.90384048 0.84273398 1333780465
0.022138713 0.90384048 0.84271729 1333780208
0.023777161 0.90384048 0.84270042 1333779696
0.025415607 0.90384048 0.84268373 1333779182
0.027054055 0.90384048 0.84266698 1333779183
0.028692499 0.90384048 0.84265029 1333779955
0.030330947 0.90384048 0.84263343 1333781741
0.032040007 0.90252918 0.84413868 1333772489
0.033682127 0.90252918 0.84412181 1333772991
0.035441168 0.90056241 0.84638792 1333776076
0.037088785 0.90056241 0.84637111 1333777607
0.038736407 0.90056241 0.84635425 1333777350
0.040472992 0.8992511 0.84785914 1333777348
0.042124283 0.8992511 0.84784228 1333778375
0.043775573 0.8992511 0.84782547 1333778631
0.045426864 0.8992511 0.84780848 1333778117
0.047181789 0.8979398 0.84931326 1333777859
0.048836749 0.8979398 0.84929639 1333777859
0.050658178 0.89597291 0.85156178 1333777603
0.05243329 0.89466161 0.85306638 1333777860
0.05421574 0.89335036 0.85457081 1333777346
0.056066524 0.89138341 0.85683596 1333777346
0.057739835 0.89138341 0.85681885 1333777346
0.05954247 0.89007223 0.8583231 1333777089
0.061219439 0.89007223 0.85830593 1333777088
0.063101411 0.88810527 0.86057079 1333777088
0.064924225 0.88679403 0.86207485 1333777088
-0.037358671 0.8948254 0.85126162 1333777606
-0.035698209 0.8948254 0.85124463 1333777350
-0.034037743 0.8948254 0.85122764 1333777350
-0.032268494 0.89679617 0.84892946 1333776328
-0.030613532 0.89679617 0.84891248 1333777870
-0.028958576 0.89679617 0.84889549 1333776844
-0.027242096 0.89810991 0.84735793 1333776844
-0.025590805 0.89810991 0.84734106 1333777874
-0.023939518 0.89810991 0.84732419 1333780186
-0.022288229 0.89810991 0.84730726 1333779161
-0.020590099 0.89942378 0.84576988 1333780703
-0.018942479 0.89942378 0.84575307 1333780195
-0.017294861 0.89942378 0.84573621 1333781479
-0.01564724 0.89942378 0.84571934 1333779938
-0.013951381 0.90139443 0.84342188 1333780967
-0.012309266 0.90139443 0.84340513 1333781735
-0.01066715 0.90139443 0.84338832 1333781735
-0.0090250317 0.90139443 0.84337157 1333780966
-0.0073829163 0.90139443 0.84335476 1333781994
-0.0057407999 0.90139443 0.84333801 1333781226
-0.0040986845 0.90139443 0.84332114 1333781226
-0.0024565684 0.90139443 0.84330434 1333782252
-0.00081445242 0.90139443 0.84328759 1333782509
0.00082679727 0.90270823 0.84175074 1333781228
0.0024607093 0.90402204 0.84021389 1333781228
0.0040954864 0.90402204 0.84019715 1333781231
0.005730263 0.90402204 0.84018052 1333781489
0.0073805838 0.90270823 0.84168375 1333779691
0.0090190293 0.90270823 0.841667 1333781747
0.010657476 0.90270823 0.84165013 1333780976
0.012295922 0.90270823 0.84163344 1333782005
0.013934369 0.90270823 0.84161669 1333783802
0.015572816 0.90270823 0.8416 1333784573
0.017211264 0.90270823 0.84158313 1333783288
0.018849708 0.90270823 0.84156638 1333782003
0.020488158 0.90270823 0.84154969 1333780208
0.022126602 0.90270823 0.84153295 1333780722
0.02376505 0.90270823 0.84151614 1333780467
0.025403496 0.90270823 0.84149939 1333779439
0.027041942 0.90270823 0.84148264 1333779183
0.028680388 0.90270823 0.84146595 1333779698
0.030318834 0.90270823 0.84144908 1333780972
0.032027867 0.90139443 0.84295166 1333771977
0.033669982 0.90139443 0.84293497 1333768366
0.035312101 0.90139443 0.8429181 1333775047
0.037076611 0.89942378 0.84518015 1333777861
0.038724229 0.89942378 0.84516335 1333777861
0.040460784 0.89810991 0.8466655 1333776317
0.042112075 0.89810991 0.84664869 1333778116
0.043763366 0.89810991 0.84663182 1333778629
0.045414656 0.89810991 0.8466149 1333778629
0.047169555 0.89679617 0.84811705 1333778885
0.048824515 0.89679617 0.84810013 1333778370
0.050645899 0.8948254 0.85036159 1333777860
0.052420985 0.89351159 0.8518635 1333777860
0.05420341 0.89219773 0.85336524 1333777602
0.055871215 0.89219773 0.85334826 1333777859
0.05772746 0.89022708 0.85560936 1333777604
0.059530072 0.88891327 0.85711098 1333777347
0.061207041 0.88891327 0.85709375 1333776574
0.063088976 0.88694257 0.85935462 1333777087
0.064771451 0.88694257 0.85933739 1333777601
-0.037454505 0.89236158 0.85157961 1333778381
-0.035710484 0.89367789 0.85004431 1333777869
-0.034050018 0.89367789 0.85002732 1333778383
-0.032280728 0.89565247 0.84773314 1333777099
-0.030625766 0.89565247 0.84771621 1333778384
-0.02897081 0.89565247 0.84769934 1333777872
-0.027254302 0.89696878 0.84616429 1333779157
-0.025603011 0.89696878 0.84614748 1333779417
-0.023951724 0.89696878 0.84613061 1333782758
-0.022300435 0.89696878 0.84611362 1333781987
-0.02060228 0.89828515 0.84457898 1333780960
-0.018954659 0.89828515 0.84456211 1333779937
-0.017307041 0.89828515 0.84454519 1333783021
-0.015659422 0.89828515 0.84452832 1333783277
-0.013963519 0.90025961 0.84223497 1333783792
-0.012321404 0.90025961 0.84221816 1333783278
-0.010679288 0.90025961 0.84220141 1333784307
-0.0090371715 0.90025961 0.84218454 1333782509
-0.0073950556 0.90025961 0.84216774 1333782252
-0.0057529393 0.90025961 0.84215099 1333781998
-0.0041108239 0.90025961 0.84213418 1333781741
-0.0024687077 0.90025961 0.84211743 1333781484
-0.00082659128 0.90025961 0.84210056 1333783025
0.00081468513 0.90157598 0.8405664 1333783026
0.0024486245 0.90289235 0.83903223 1333783798
0.0040834015 0.90289235 0.83901548 1333783028
0.0057181777 0.90289235 0.83899879 1333783542
0.007368471 0.90157598 0.8404994 1333782517
0.0090069184 0.90157598 0.84048265 1333784059
0.010645364 0.90157598 0.84046584 1333783291
0.012257285 0.90289235 0.83893186 1333783805
0.013892062 0.90289235 0.83891517 1333783293
0.015560703 0.90157598 0.84041566 1333783293
0.017199149 0.90157598 0.84039879 1333781750
0.018796394 0.90289235 0.8388651 1333780208
0.020476043 0.90157598 0.84036535 1333780722
0.022114491 0.90157598 0.84034866 1333782778
0.023752937 0.90157598 0.84033179 1333780724
0.025391385 0.90157598 0.84031504 1333779954
0.027029831 0.90157598 0.84029835 1333779438
0.028668275 0.90157598 0.84028161 1333779696
0.030306723 0.90157598 0.8402648 1333783024
0.03201573 0.90025961 0.84176475 1333774029
0.033657845 0.90025961 0.84174794 1333769645
0.035299961 0.90025961 0.84173107 1333775812
0.037064429 0.89828515 0.84398913 1333777861
0.038712047 0.89828515 0.84397227 1333777861
0.040359668 0.89828515 0.84395546 1333778116
0.042099867 0.89696878 0.84545505 1333778373
0.043751158 0.89696878 0.84543824 1333778116
0.045402452 0.89696878 0.84542125 1333778116
0.047157321 0.89565247 0.84692079 1333778116
0.048812281 0.89565247 0.8469038 1333777859
0.050633624 0.89367789 0.84916139 1333777603
0.05229409 0.89367789 0.8491444 1333777603
0.054072816 0.89236158 0.85064358 1333777861
0.055858888 0.89104521 0.85214269 1333777604
0.057715092 0.88907069 0.8543998 1333777091
0.059388403 0.88907069 0.85438269 1333778120
0.061194643 0.88775438 0.85588157 1333777601
0.063076541 0.88577992 0.85813856 1333777601
0.064759016 0.88577992 0.85812134 1333778112
-0.037466809 0.89121157 0.85037673 1333778127
-0.035722755 0.89253044 0.84884411 1333777609
-0.034062289 0.89253044 0.84882712 1333777095
-0.032292962 0.89450878 0.84653687 1333777096
-0.030638 0.89450878 0.84652001 1333779152
-0.028983044 0.89450878 0.84650308 1333777614
-0.02726651 0.89582771 0.8449707 1333779156
-0.025615219 0.89582771 0.84495384 1333779672
-0.023963932 0.89582771 0.84493703 1333783783
-0.022312643 0.89582771 0.84492004 1333782759
-0.02061446 0.89714652 0.84338796 1333780960
-0.018966839 0.89714652 0.84337109 1333777625
-0.017319221 0.89714652 0.84335423 1333780966
-0.015617774 0.8991248 0.84106469 1333781223
-0.013975658 0.8991248 0.841048 1333781994
-0.012333543 0.8991248 0.84103113 1333780198
-0.010691427 0.8991248 0.84101439 1333781997
-0.0090493103 0.8991248 0.84099758 1333781998
-0.0073896591 0.90044373 0.8394658 1333783025
-0.0057650786 0.8991248 0.84096396 1333783540
-0.0041127652 0.90044373 0.83943236 1333782512
-0.0024743192 0.90044373 0.83941567 1333781484
-0.00083587243 0.90044373 0.8393988 1333782768
0.00080257346 0.90044373 0.83938205 1333783026
0.0024365394 0.90176255 0.83785057 1333783798
0.0040713167 0.90176255 0.83783388 1333782000
0.0057060928 0.90176255 0.83781713 1333783027
0.0073563596 0.90044373 0.83931506 1333782517
0.0089756474 0.90176255 0.83778369 1333784059
0.010610424 0.90176255 0.83776695 1333782524
0.012245201 0.90176255 0.83775026 1333782781
0.013879977 0.90176255 0.83773351 1333781244
0.015548592 0.90044373 0.83923131 1333781244
0.017187038 0.90044373 0.8392145 1333780981
0.018825484 0.90044373 0.83919775 1333780724
0.020463932 0.90044373 0.83918101 1333780981
0.022102378 0.90044373 0.83916432 1333781239
0.023740824 0.90044373 0.83914745 1333780467
0.02537927 0.90044373 0.83913076 1333779954
0.027017718 0.90044373 0.83911401 1333780722
0.028656162 0.90044373 0.83909726 1333781749
0.030294608 0.90044373 0.83908045 1333783539
0.032003589 0.8991248 0.84057778 1333770432
0.033645704 0.8991248 0.84056091 1333767070
0.035287824 0.8991248 0.84054416 1333776065
0.037052251 0.89714652 0.84279823 1333777086
0.038699869 0.89714652 0.84278136 1333778627
0.040436372 0.89582771 0.84427834 1333778373
0.042087663 0.89582771 0.84426147 1333778115
0.043738954 0.89582771 0.8442446 1333778373
0.045390245 0.89582771 0.84422767 1333778373
0.047145087 0.89450878 0.84572446 1333778117
0.048960887 0.89253044 0.84797806 1333778117
0.050621353 0.89253044 0.84796107 1333777088
0.052281819 0.89253044 0.84794408 1333777346
0.054060511 0.89121157 0.84944069 1333777860
0.055846557 0.8898927 0.85093713 1333777860
0.057702724 0.88791436 0.8531903 1333776062
0.059505276 0.88659555 0.8546865 1333777347
0.061182253 0.88659555 0.85466945 1333777600
0.063200682 0.88329834 0.85843569 1333777600
0.064886831 0.88329834 0.85841846 1333778110
0.066572979 0.88329834 0.85840124 1333778110
-0.03573503 0.89138299 0.84764391 1333777094
-0.034074567 0.89138299 0.84762692 1333775809
-0.032414105 0.89138299 0.84761 1333776069
-0.030753642 0.89138299 0.84759289 1333780951
-0.028995277 0.89336509 0.84530675 1333779413
-0.027340317 0.89336509 0.84528977 1333779670
-0.025627427 0.89468652 0.84376025 1333779672
-0.02397614 0.89468652 0.84374338 1333784555
-0.022324851 0.89468652 0.84372646 1333783273
-0.02062664 0.89600796 0.842197 1333782246
-0.018979019 0.89600796 0.84218019 1333780194
-0.017331403 0.89600796 0.84216332 1333782765
-0.015629914 0.89799005 0.83987778 1333781998
-0.013987797 0.89799005 0.83986098 1333782768
-0.012345683 0.89799005 0.83984423 1333782769
-0.010703566 0.89799005 0.83982742 1333782511
-0.0090614501 0.89799005 0.83981055 1333782769
-0.0074017704 0.89931148 0.83828151 1333784568
-0.0057772179 0.89799005 0.83977699 1333784569
-0.004124877 0.89931148 0.83824807 1333784826
-0.0024864308 0.89931148 0.83823133 1333782769
-0.00084798457 0.89931148 0.83821446 1333783798
0.00078967784 0.90063286 0.83668566 1333785083
0.002424455 0.90063286 0.83666897 1333786111
0.0040470464 0.90261501 0.83438414 1333784828
0.0056763189 0.90261501 0.83436757 1333784828
0.007328786 0.90063286 0.83661878 1333783802
0.0089635616 0.90063286 0.83660203 1333784831
0.010598339 0.90063286 0.83658534 1333784576
0.012233116 0.90063286 0.83656859 1333784832
0.013867893 0.90063286 0.8365519 1333782524
0.01553648 0.89931148 0.83804697 1333782267
0.017174928 0.89931148 0.83803016 1333782522
0.018772224 0.90063286 0.83650172 1333782522
0.02045182 0.89931148 0.83799672 1333781239
0.022090267 0.89931148 0.83797997 1333780725
0.023728712 0.89931148 0.83796316 1333779954
0.025367159 0.89931148 0.83794641 1333780724
0.027005605 0.89931148 0.83792967 1333781750
0.028644051 0.89931148 0.83791298 1333782264
0.030282497 0.89931148 0.83789611 1333783541
0.031991452 0.89799005 0.83939075 1333769407
0.033633564 0.89799005 0.83937401 1333765535
0.035275683 0.89799005 0.8393572 1333775044
0.03704007 0.89600796 0.84160727 1333778117
0.038687691 0.89600796 0.84159046 1333779144
0.040424164 0.89468652 0.84308469 1333778117
0.042075455 0.89468652 0.84306788 1333777090
0.043726746 0.89468652 0.84305102 1333778117
0.045477893 0.89336509 0.84454519 1333778631
0.047132853 0.89336509 0.8445282 1333777860
0.048948612 0.89138299 0.84677786 1333777860
0.050609078 0.89138299 0.84676087 1333777345
0.052384079 0.89006156 0.84825474 1333777088
0.054166425 0.88874012 0.84974867 1333777859
0.05583423 0.88874012 0.84973156 1333778372
0.057690348 0.88675797 0.85198069 1333777088
0.059492879 0.88543665 0.85347438 1333777860
0.061369184 0.8834545 0.85572338 1333777343
0.063188218 0.88213307 0.85721689 1333777343
0.064874366 0.88213307 0.85719961 1333777344
0.066560514 0.88213307 0.85718238 1333778371
-0.035827283 0.88891155 0.84795386 1333775296
-0.034163147 0.88891155 0.84793687 1333776324
-0.03242638 0.89023548 0.84640968 1333776070
-0.030765919 0.89023548 0.84639269 1333779668
-0.029105449 0.89023548 0.8463757 1333778641
-0.027352551 0.89222145 0.84409362 1333779155
-0.025697591 0.89222145 0.84407663 1333778901
-0.023988346 0.89354539 0.84254968 1333781214
-0.022337057 0.89354539 0.84253281 1333780447
-0.020685768 0.89354539 0.84251601 1333781476
-0.018991198 0.89486939 0.84098923 1333779937
-0.017343581 0.89486939 0.8409723 1333781736
-0.015642053 0.89685524 0.83869082 1333780202
-0.013999936 0.89685524 0.83867395 1333780973
-0.012357822 0.89685524 0.8386572 1333782257
-0.010715705 0.89685524 0.83864039 1333782257
-0.0090735881 0.89685524 0.83862364 1333782769
-0.0074138832 0.89817917 0.83709717 1333783026
-0.0057754372 0.89817917 0.83708042 1333781484
-0.0041369898 0.89817917 0.83706373 1333783283
-0.0024985436 0.89817917 0.83704698 1333782515
-0.00086009671 0.89817917 0.83703017 1333783800
0.00077759288 0.89950317 0.83550394 1333783802
0.0024123699 0.89950317 0.83548719 1333784317
0.0040350016 0.90148908 0.83320653 1333783291
0.0056642741 0.90148908 0.83318985 1333783291
0.0073167011 0.89950317 0.83543712 1333783291
0.0089514768 0.89950317 0.83542043 1333784063
0.010586254 0.89950317 0.83540368 1333783550
0.012221031 0.89950317 0.83538699 1333783807
0.013855808 0.89950317 0.83537024 1333782780
0.015524367 0.89817917 0.83686268 1333782780
0.017162815 0.89817917 0.83684582 1333783293
0.018801263 0.89817917 0.83682913 1333782780
0.020439709 0.89817917 0.83681238 1333781239
0.022078155 0.89817917 0.83679563 1333780982
0.023716601 0.89817917 0.83677882 1333778670
0.025355047 0.89817917 0.83676207 1333780212
0.026993494 0.89817917 0.83674538 1333782518
0.028631939 0.89817917 0.83672863 1333783033
0.030270386 0.89817917 0.83671176 1333784310
0.031979311 0.89685524 0.83820373 1333761180
0.033621427 0.89685524 0.83818704 1333765003
0.035263546 0.89685524 0.83817017 1333778882
0.037027888 0.89486939 0.84041625 1333777860
0.038675509 0.89486939 0.84039938 1333779144
0.040411957 0.89354539 0.84189111 1333778373
0.042063247 0.89354539 0.84187424 1333777859
0.043714538 0.89354539 0.84185731 1333777597
0.045465659 0.89222145 0.84334886 1333777597
0.04712062 0.89222145 0.84333193 1333777853
0.048936337 0.89023548 0.84557766 1333778881
0.050596803 0.89023548 0.84556067 1333777857
0.052257266 0.89023548 0.84554356 1333777600
0.054035909 0.88891155 0.84703493 1333778372
0.055821899 0.88758761 0.848526 1333778629
0.057677981 0.8856017 0.85077125 1333777344
0.059674267 0.88229179 0.85452443 1333777858
0.061356746 0.88229179 0.85450721 1333777085
0.063175753 0.88096792 0.85599804 1333777085
0.064861901 0.88096792 0.85598081 1333777346
0.066763863 0.87898195 0.85822546 1333777860
-0.035839584 0.88776153 0.84675097 1333773757
-0.034175444 0.88776153 0.84673399 1333776841
-0.032438654 0.88908803 0.84520948 1333776842
-0.030778194 0.88908803 0.84519249 1333779670
-0.029117726 0.88908803 0.84517556 1333779415
-0.027364785 0.89107776 0.84289736 1333780187
-0.025709823 0.89107776 0.84288037 1333779674
-0.024000553 0.89240426 0.8413561 1333780188
-0.022349264 0.89240426 0.84133923 1333779679
-0.020697976 0.89240426 0.84132236 1333782763
-0.019003378 0.89373076 0.83979821 1333781220
-0.017355761 0.89373076 0.83978134 1333781992
-0.015708141 0.89373076 0.83976454 1333781226
-0.01406052 0.89373076 0.83974767 1333781226
-0.012369961 0.89572048 0.83747023 1333781742
-0.010727845 0.89572048 0.83745348 1333783798
-0.0090857279 0.89572048 0.83743662 1333783798
-0.0074259951 0.89704692 0.83591282 1333783798
-0.0057875491 0.89704692 0.83589613 1333783798
-0.0041491012 0.89704692 0.83587939 1333785340
-0.0025106552 0.89704692 0.8358627 1333783800
-0.00086926867 0.89837343 0.83433896 1333787648
0.00076550792 0.89837343 0.83432227 1333788672
0.0024002851 0.89837343 0.83430552 1333788672
0.0040229578 0.90036315 0.83202881 1333788672
0.0056522302 0.90036315 0.83201206 1333787648
0.0073046158 0.89837343 0.8342554 1333785344
0.0089393929 0.89837343 0.83423865 1333785344
0.010574169 0.89837343 0.8342219 1333784576
0.012208946 0.89837343 0.83420521 1333784063
0.013843724 0.89837343 0.83418846 1333783293
0.015478499 0.89837343 0.83417177 1333783807
0.017113278 0.89837343 0.83415502 1333783293
0.01878915 0.89704692 0.83564478 1333783807
0.020427598 0.89704692 0.83562803 1333783550
0.022066044 0.89704692 0.83561134 1333782780
0.023704488 0.89704692 0.83559448 1333780981
0.025342936 0.89704692 0.83557779 1333782523
0.026981382 0.89704692 0.83556104 1333782005
0.028619828 0.89704692 0.83554429 1333783290
0.030258274 0.89704692 0.83552748 1333783798
0.031967174 0.89572048 0.83701682 1333758869
0.033609286 0.89572048 0.83700001 1333758093
0.035251405 0.89572048 0.83698326 1333775825
0.036893521 0.89572048 0.83696645 1333780429
0.038663331 0.89373076 0.83920848 1333779401
0.040399749 0.89240426 0.84069753 1333778117
0.04205104 0.89240426 0.84068066 1333777860
0.04370233 0.89240426 0.84066367 1333776576
0.045453425 0.89107776 0.8421526 1333776319
0.047108386 0.89107776 0.84213573 1333776834
0.048924062 0.88908803 0.84437734 1333777348
0.050695345 0.88776153 0.84586596 1333777859
0.052359473 0.88776153 0.84584898 1333777344
0.054023605 0.88776153 0.84583205 1333777346
0.055809569 0.88643503 0.84732056 1333778117
0.057665616 0.88444531 0.84956163 1333777603
0.059468083 0.88311887 0.85105002 1333778117
0.061344311 0.88112915 0.85329115 1333777602
0.063163295 0.87980258 0.8547793 1333777344
0.064849444 0.87980258 0.85476196 1333777603
0.066751361 0.87781286 0.85700268 1333778375
-0.035931911 0.88528246 0.84705311 1333773752
-0.034187749 0.88661152 0.84553111 1333777865
-0.032523617 0.88661152 0.84551406 1333777099
-0.030859482 0.88661152 0.84549707 1333779412
-0.029195346 0.88661152 0.84547997 1333778647
-0.027469536 0.88794053 0.84395826 1333779674
-0.025722057 0.88993406 0.8416841 1333779419
-0.0240671 0.88993406 0.84166723 1333779934
-0.022361469 0.89126313 0.84014565 1333779421
-0.02071018 0.89126313 0.84012878 1333781735
-0.019058889 0.89126313 0.84011179 1333780451
-0.01736794 0.89259219 0.83859044 1333782250
-0.015720321 0.89259219 0.83857363 1333782252
-0.014072699 0.89259219 0.83855677 1333781995
-0.0123821 0.89458561 0.83628321 1333781483
-0.010739984 0.89458561 0.83626646 1333782768
-0.0090978667 0.89458561 0.83624965 1333781743
-0.0074381065 0.89591467 0.83472854 1333782514
-0.0057996605 0.89591467 0.83471179 1333783543
-0.0041612131 0.89591467 0.83469504 1333783286
-0.0025227668 0.89591467 0.83467835 1333782517
-0.00088135363 0.89724374 0.83315736 1333788672
0.00075342297 0.89724374 0.83314061 1333788672
0.0023816412 0.89923722 0.83086783 1333788672
0.0040109139 0.89923722 0.83085108 1333788672
0.0056401864 0.89923722 0.83083445 1333788672
0.007292531 0.89724374 0.83307374 1333784576
0.008927308 0.89724374 0.83305699 1333784832
0.010562086 0.89724374 0.8330403 1333783296
0.012196861 0.89724374 0.83302355 1333783296
0.013831639 0.89724374 0.83300686 1333782522
0.015466414 0.89724374 0.83299011 1333782522
0.017101193 0.89724374 0.83297336 1333781239
0.018735969 0.89724374 0.83295667 1333783295
0.020415485 0.89591467 0.83444375 1333783296
0.022053933 0.89591467 0.834427 1333782271
0.023692377 0.89591467 0.83441013 1333780472
0.025330825 0.89591467 0.83439344 1333781757
0.026969271 0.89591467 0.83437669 1333782518
0.028607715 0.89591467 0.83436 1333783547
0.030246163 0.89591467 0.83434314 1333782257
0.031884611 0.89591467 0.83432639 1333756814
0.033597149 0.89458561 0.83581299 1333755521
0.035239264 0.89458561 0.83579624 1333775311
0.036881384 0.89458561 0.83577943 1333779141
0.03865115 0.89259219 0.83801758 1333778884
0.040387541 0.89126313 0.83950388 1333777859
0.042038832 0.89126313 0.83948708 1333777859
0.043786235 0.88993406 0.84097326 1333775813
0.045441192 0.88993406 0.84095627 1333775298
0.047251329 0.88794053 0.84319407 1333775813
0.048911788 0.88794053 0.84317714 1333776326
0.050683044 0.88661152 0.84466308 1333777859
0.052347176 0.88661152 0.8446461 1333777602
0.054129437 0.88528246 0.84613198 1333776576
0.055797242 0.88528246 0.84611499 1333777860
0.057653241 0.88328892 0.84835219 1333777860
0.059455693 0.88195997 0.8498379 1333777860
0.061331872 0.87996644 0.85207498 1333778117
0.063150823 0.87863737 0.85356045 1333777860
0.064836971 0.87863737 0.85354322 1333777861
-0.037821352 0.88080108 0.84962034 1333774260
-0.035944242 0.88412994 0.84584755 1333773750
-0.034276437 0.88412994 0.84583044 1333779147
-0.032608632 0.88412994 0.84581333 1333778641
-0.030871784 0.88546157 0.84429419 1333779670
-0.029207649 0.88546157 0.84427708 1333778901
-0.027481811 0.88679308 0.84275806 1333779930
-0.025821351 0.88679308 0.84274107 1333779676
-0.024079334 0.88879043 0.84047097 1333781475
-0.022424374 0.88879043 0.84045398 1333780451
-0.020722387 0.890122 0.8389352 1333781992
-0.019071097 0.890122 0.83891821 1333780452
-0.01738012 0.89145356 0.83739954 1333781994
-0.015732499 0.89145356 0.83738256 1333782766
-0.014036353 0.89345086 0.83511305 1333782252
-0.012394238 0.89345086 0.8350963 1333781484
-0.010752122 0.89345086 0.83507949 1333782768
-0.0091100065 0.89345086 0.83506274 1333782512
-0.0074502192 0.89478242 0.83354419 1333782769
-0.0058117732 0.89478242 0.83352745 1333783285
-0.0041733254 0.89478242 0.83351076 1333784314
-0.0025348794 0.89478242 0.83349401 1333784063
-0.00089343858 0.89611393 0.83197558 1333788672
0.00074133847 0.89611393 0.83195901 1333788672
0.0023761156 0.89611393 0.83194226 1333788672
0.0039988696 0.89811134 0.82967335 1333788672
0.0056281425 0.89811134 0.82965672 1333788672
0.0072804461 0.89611393 0.83189207 1333788672
0.0089152232 0.89611393 0.83187538 1333788672
0.01055 0.89611393 0.83185863 1333785088
0.012184777 0.89611393 0.83184195 1333783808
0.013819554 0.89611393 0.8318252 1333783808
0.015454329 0.89611393 0.83180845 1333784064
0.017089108 0.89611393 0.83179176 1333783807
0.018764924 0.89478242 0.83327615 1333783807
0.020403374 0.89478242 0.8332594 1333782784
0.022041818 0.89478242 0.83324265 1333782784
0.023680266 0.89478242 0.83322585 1333783039
0.025318712 0.89478242 0.8332091 1333784064
0.02695716 0.89478242 0.83319241 1333784058
0.028595604 0.89478242 0.83317566 1333782774
0.030300779 0.89345086 0.8346597 1333781228
0.031942897 0.89345086 0.83464283 1333758356
0.033585012 0.89345086 0.83462608 1333759123
0.035227127 0.89345086 0.83460927 1333774286
0.03699135 0.89145356 0.83684337 1333779400
0.038638968 0.89145356 0.83682656 1333778115
0.040375337 0.890122 0.8383103 1333777859
0.042026628 0.890122 0.83829343 1333777859
0.043774001 0.88879043 0.83977699 1333777092
0.045578592 0.88679308 0.84201086 1333776835
0.04723905 0.88679308 0.84199387 1333777093
0.049006607 0.88546157 0.84347731 1333777093
0.050670743 0.88546157 0.8434602 1333777603
0.052449308 0.88412994 0.84494346 1333777860
0.054117106 0.88412994 0.84492654 1333777602
0.055784911 0.88412994 0.84490943 1333777860
0.057640873 0.88213265 0.84714258 1333777091
0.059443295 0.88080108 0.84862572 1333776834
0.061319437 0.87880379 0.85085875 1333777346
0.063138366 0.87747216 0.85234165 1333778117
0.065034688 0.87547487 0.85457444 1333777861
-0.037959374 0.87764108 0.85065782 1333774771
-0.036076687 0.88097626 0.84689146 1333773237
-0.034403384 0.88097626 0.8468743 1333779405
-0.032620959 0.88297743 0.84460789 1333778899
-0.03095316 0.88297743 0.84459084 1333778642
-0.029285355 0.88297743 0.84457374 1333778131
-0.02755582 0.8843115 0.84305727 1333780187
-0.02589169 0.8843115 0.84304017 1333779677
-0.024173161 0.88564563 0.84152383 1333780447
-0.022436611 0.88764673 0.83925784 1333779678
-0.020781651 0.88764673 0.83924085 1333781220
-0.019083304 0.88898081 0.83772463 1333780194
-0.017432012 0.88898081 0.83770776 1333781223
-0.015744679 0.89031494 0.83619165 1333782509
-0.014097058 0.89031494 0.83617479 1333782509
-0.012406379 0.89231604 0.83390927 1333780968
-0.010764263 0.89231604 0.83389246 1333782767
-0.0091221454 0.89231604 0.83387572 1333783026
-0.0074623306 0.89365017 0.83235985 1333783026
-0.0058238851 0.89365017 0.83234316 1333782517
-0.0041854372 0.89365017 0.83232641 1333784059
-0.0025469912 0.89365017 0.83230966 1333783808
-0.00090854429 0.89365017 0.83229285 1333788672
0.00072925352 0.89498425 0.83077723 1333788672
0.0023640306 0.89498425 0.83076048 1333788672
0.0039988072 0.89498425 0.83074379 1333788672
0.0056335842 0.89498425 0.83072704 1333788672
0.0072683613 0.89498425 0.83071035 1333788672
0.0089031383 0.89498425 0.8306936 1333788672
0.010537915 0.89498425 0.83067685 1333784576
0.012172692 0.89498425 0.83066028 1333783040
0.013807469 0.89498425 0.83064353 1333783296
0.015442245 0.89498425 0.83062685 1333783039
0.017114369 0.89365017 0.8321085 1333782784
0.018752813 0.89365017 0.83209181 1333782784
0.020391261 0.89365017 0.83207506 1333780987
0.022029707 0.89365017 0.83205837 1333782015
0.023668151 0.89365017 0.8320415 1333782270
0.025306599 0.89365017 0.83202475 1333783552
0.026945045 0.89365017 0.83200806 1333784315
0.028646523 0.89231604 0.83348948 1333773521
0.030288639 0.89231604 0.83347267 1333764527
0.031930756 0.89231604 0.8334558 1333758873
0.033572871 0.89231604 0.83343911 1333763230
0.035331551 0.89031494 0.83566934 1333775053
0.036979172 0.89031494 0.83565247 1333779657
0.03862679 0.89031494 0.8356356 1333778115
0.040363129 0.88898081 0.83711672 1333777859
0.04201442 0.88898081 0.83709985 1333777859
0.043761767 0.88764673 0.83858079 1333777864
0.045566313 0.88564563 0.84081054 1333777350
0.047226775 0.88564563 0.84079355 1333777349
0.048994306 0.8843115 0.84227443 1333777349
0.050769176 0.88297743 0.84375501 1333777346
0.052436978 0.88297743 0.8437379 1333777861
0.054104779 0.88297743 0.84372097 1333777349
0.055955198 0.88097626 0.84595019 1333777349
0.057753917 0.87964219 0.84743065 1333777349
0.059624515 0.87764108 0.8496598 1333776578
0.061439749 0.87630695 0.85114014 1333776577
0.063330531 0.87430578 0.853369 1333777862
0.065162271 0.87297165 0.8548491 1333777863
-0.038055584 0.87514174 0.85093874 1333777081
-0.036169164 0.87848336 0.84717882 1333774265
-0.034492191 0.87848336 0.84716177 1333779662
-0.032742444 0.87981987 0.84564769 1333778385
-0.031069143 0.87981987 0.84563059 1333778385
-0.029395834 0.87981987 0.84561342 1333779929
-0.027629882 0.88182485 0.84335119 1333780957
-0.025903992 0.88316149 0.84183729 1333779934
-0.024239857 0.88316149 0.8418203 1333779934
-0.022524972 0.88449812 0.84030664 1333779678
-0.020793885 0.8865031 0.83804458 1333781734
-0.01909551 0.88783973 0.83653098 1333781735
-0.017444219 0.88783973 0.83651417 1333781478
-0.01575686 0.88917637 0.83500075 1333781995
-0.014109239 0.88917637 0.83498389 1333783023
-0.012418517 0.89118129 0.83272231 1333781484
-0.010776401 0.89118129 0.83270556 1333783283
-0.0091342842 0.89118129 0.83268875 1333783798
-0.0074921683 0.89118129 0.83267188 1333783541
-0.005850052 0.89118129 0.83265513 1333782517
-0.0041975491 0.89251786 0.83114207 1333784059
-0.0025591028 0.89251786 0.83112538 1333783806
-0.00092065643 0.89251786 0.83110851 1333787648
0.0007177894 0.89251786 0.83109182 1333788672
0.0023519457 0.89385456 0.82957888 1333788672
0.0039867223 0.89385456 0.82956213 1333788672
0.0056214989 0.89385456 0.82954544 1333788672
0.0072715757 0.89251786 0.83102477 1333788672
0.0089100217 0.89251786 0.83100808 1333788672
0.01052583 0.89385456 0.82949525 1333788672
0.012160608 0.89385456 0.8294785 1333786109
0.013795384 0.89385456 0.82946181 1333783551
0.01543016 0.89385456 0.82944506 1333783551
0.017102256 0.89251786 0.83092421 1333783550
0.018740702 0.89251786 0.83090746 1333783293
0.02037915 0.89251786 0.83089077 1333783293
0.022017594 0.89251786 0.83087403 1333783550
0.02365604 0.89251786 0.83085716 1333784059
0.025294486 0.89251786 0.83084047 1333786880
0.026992269 0.89118129 0.8323192 1333784320
0.028634384 0.89118129 0.83230251 1333757078
0.030276502 0.89118129 0.83228564 1333744008
0.031918619 0.89118129 0.83226889 1333756859
0.033560734 0.89118129 0.83225209 1333774532
0.035319369 0.88917637 0.83447838 1333778387
0.036966991 0.88917637 0.83446157 1333779142
0.038614608 0.88917637 0.8344447 1333778370
0.040350921 0.88783973 0.83592308 1333778370
0.042002212 0.88783973 0.83590615 1333778370
0.043749534 0.8865031 0.83738452 1333777347
0.045554038 0.88449812 0.83961034 1333778117
0.04731787 0.88316149 0.84108847 1333778377
0.048982002 0.88316149 0.84107143 1333778635
0.050756846 0.88182485 0.84254944 1333777861
0.052424647 0.88182485 0.84253246 1333779146
0.054269519 0.87981987 0.8447578 1333777348
0.05594283 0.87981987 0.84474075 1333777091
0.057741519 0.87848336 0.84621853 1333777349
0.05961208 0.87647837 0.84844375 1333776578
0.061427288 0.87514174 0.84992129 1333777346
0.063454419 0.87180018 0.85364097 1333778374
0.065149739 0.87180018 0.85362363 1333777860
-0.039754204 0.87397653 0.84973705 1333776819
-0.038068049 0.87397653 0.84971982 1333775792
-0.036301766 0.87531567 0.84820825 1333776571
-0.034504581 0.87732446 0.84594959 1333781455
-0.032827608 0.87732446 0.84593236 1333778384
-0.031081511 0.8786636 0.84442103 1333779412
-0.029408202 0.8786636 0.84440392 1333780958
-0.027642213 0.88067228 0.84214562 1333781215
-0.025974412 0.88067228 0.84212852 1333779934
-0.02425216 0.88201147 0.84061742 1333779934
-0.022588026 0.88201147 0.84060037 1333779935
-0.020876782 0.88335067 0.83908933 1333782248
-0.019151157 0.88535941 0.83683145 1333781992
-0.017456427 0.8866986 0.83532053 1333781478
-0.015805138 0.8866986 0.8353036 1333780966
-0.014121419 0.8880378 0.83379287 1333782508
-0.012473797 0.8880378 0.833776 1333780714
-0.010826179 0.8880378 0.83375913 1333783027
-0.0091464231 0.89004648 0.83150172 1333783798
-0.0075043077 0.89004648 0.83148497 1333783284
-0.0058621913 0.89004648 0.83146816 1333781489
-0.0042200754 0.89004648 0.83145142 1333784058
-0.0025712154 0.89138561 0.82994103 1333784060
-0.00093276857 0.89138561 0.82992417 1333787648
0.00070567726 0.89138561 0.82990748 1333788672
0.002344124 0.89138561 0.82989073 1333788672
0.0039746375 0.89272481 0.82838047 1333788672
0.0056094141 0.89272481 0.82836378 1333788672
0.0072594634 0.89138561 0.82984048 1333788672
0.0088979099 0.89138561 0.82982373 1333788672
0.010536357 0.89138561 0.82980686 1333788672
0.012174803 0.89138561 0.82979017 1333786875
0.01381325 0.89138561 0.82977343 1333784576
0.015451696 0.89138561 0.82975674 1333784063
0.017090144 0.89138561 0.82973987 1333784064
0.018728588 0.89138561 0.82972312 1333784064
0.020367038 0.89138561 0.82970643 1333784574
0.022005482 0.89138561 0.82968968 1333784060
0.023643928 0.89138561 0.82967287 1333785339
0.025282376 0.89138561 0.82965612 1333786880
0.02698013 0.89004648 0.83113235 1333781491
